ply
format ascii 1.0
comment PCL generated
element vertex 1303
property float x
property float y
property float z
property float intensity
element camera 0
property float view_px
property float view_py
property float view_pz
property float x_axisx
property float x_axisy
property float x_axisz
property float y_axisx
property float y_axisy
property float y_axisz
property float z_axisx
property float z_axisy
property float z_axisz
property float focal
property float scalex
property float scaley
property float centerx
property float centery
property int viewportx
property int viewporty
property float k1
property float k2
end_header
7.0130005 8.9180002 -0.92000002 0.88235295
7.0130005 8.9780006 -0.92000002 0.89019608
7.0530005 8.8980007 -0.85000002 0
7.0430002 8.868 -0.77999997 0.29019609
7.0430002 8.9280005 -0.77999997 0.33333334
7.0530005 8.9580002 -0.85000002 0.11372549
7.0530005 8.9879999 -0.79000002 0.36078432
7.0830002 8.948 -0.72000003 0.19215687
7.0830002 9.0080004 -0.72000003 0.18039216
7.0930004 8.8980007 -0.72000003 0.34117648
7.1130004 8.8780003 -0.72000003 0.15294118
7.0230002 9.0279999 -0.93000001 0.88235295
7.0330005 9.1480007 -0.94 0.88235295
7.0130005 9.0580006 -0.86000001 0.18039216
7.0430002 9.0980005 -0.79000002 0.36078432
7.0830002 9.0279999 -0.86000001 0.090196081
7.0530005 9.0480003 -0.79000002 0.36078432
7.0830002 9.0880003 -0.86000001 0.20392157
7.0830002 9.0679998 -0.73000002 0.22352941
7.0430002 9.1680002 -0.80000001 0.36078432
7.0830002 9.118 -0.73000002 0.18039216
7.0830002 9.1780005 -0.74000001 0.3137255
7.0030003 9.368 -0.94999999 0.29019609
7.0130005 9.198 -0.94 0.92156863
7.0630002 9.2280006 -0.87 0.070588239
7.0330005 9.3280001 -1.02 0.3019608
7.0930004 9.3380003 -0.88 0.15294118
7.0530005 9.2080002 -0.80000001 0.36078432
7.0530005 9.2680006 -0.81 0.35294119
7.0630002 9.3280001 -0.81 0.33333334
7.1030002 9.2379999 -0.74000001 0.19215687
7.1030002 9.2980003 -0.74000001 0.17254902
7.0430002 9.3579998 -0.95999998 0.27058825
7.0130005 9.408 -0.95999998 0.38039216
7.0230002 9.3980007 -0.88 0.36078432
7.0630002 9.3880005 -0.88 0.18039216
7.0830002 9.3880005 -0.88999999 0.3019608
7.0230002 9.4879999 -0.95999998 0.43137255
7.0530005 9.4980001 -0.88999999 0.21176471
7.1130004 9.3880005 -0.95999998 0.74117649
7.0630002 9.3980007 -0.81999999 0.33333334
7.0630002 9.4580002 -0.81999999 0.36078432
7.1030002 9.368 -0.75 0.16078432
7.1430001 9.4780006 -0.75999999 0.21176471
7.0430002 9.5780001 -0.97000003 0.27058825
7.0230002 9.5279999 -0.88999999 0.32156864
7.0630002 9.5279999 -0.81999999 0.33333334
7.0730004 9.5880003 -0.82999998 0.48235294
7.0730004 9.7280006 -0.99000001 0.16078432
7.0830002 9.6680002 -0.91000003 0.14117648
7.0930004 9.7480001 -0.91000003 0.39215687
7.1630001 9.7880001 -0.85000002 0.26274511
7.1530004 9.8380003 -1.15 0.23137255
7.1130004 9.8380003 -0.92000002 0.12156863
7.4830003 8.7980003 -1.83 0.23137255
7.4630003 8.8380003 -1.83 0.18039216
7.223 9.1780005 -1.85 0.18039216
7.2330003 9.158 -1.85 0.23137255
7.2830005 9.0980005 -1.85 0.15294118
7.3030005 9.0679998 -1.85 0.23137255
7.2530003 9.1280003 -1.85 0.29019609
7.4030004 8.9280005 -1.84 0.18039216
7.3530002 9.0180006 -1.84 0.18039216
7.3730001 8.9780006 -1.84 0.24313726
7.3930001 8.9680004 -1.84 0.27058825
7.4230003 8.8980007 -1.84 0.23137255
7.4530001 8.868 -1.84 0.26274511
7.3330002 9.0480003 -1.85 0.27058825
7.5630002 8.6380005 -1.8200001 0.19215687
7.5630002 8.6880007 -1.8200001 0.27058825
7.5730004 8.5480003 -1.8099999 0.23137255
7.5830002 8.618 -1.8200001 0.23137255
7.5230002 8.7379999 -1.83 0.18039216
7.5130005 8.7779999 -1.83 0.26274511
7.5230002 8.7080002 -1.8200001 0.23137255
7.3030005 8.6780005 -1.41 0.18039216
7.1930003 8.7280006 -1.46 0.38039216
7.2130003 8.7580004 -1.41 0.14117648
7.223 8.7480001 -1.41 0.23137255
7.2030001 8.7880001 -1.47 0.41176471
7.1930003 8.8080006 -1.47 0.20392157
7.2930002 8.7180004 -1.42 0.20392157
7.3130002 8.8179998 -1.48 0.29019609
7.3430004 8.6680002 -1.41 0.19215687
7.3830004 8.658 -1.42 0.23137255
7.4530001 8.6880007 -1.4299999 0.15294118
7.4330001 8.658 -1.35 0.14117648
7.3730001 8.7779999 -1.48 0.28235295
7.3430004 8.8280001 -1.4299999 0.36078432
7.3730001 8.8280001 -1.49 0.23137255
7.2730002 8.5880003 -1.33 0
7.1730003 8.5480003 -1.1799999 0.33333334
7.3530002 8.6280003 -1.34 0
7.1930003 8.868 -1.48 0.24313726
7.1930003 8.9280005 -1.48 0.48235294
7.2030001 8.9980001 -1.49 0.29019609
7.223 9.1280003 -1.51 0.28235295
7.2130003 9.1780005 -1.51 0.34117648
7.2030001 9.0580006 -1.5 0.42352942
7.5630002 8.618 -1.15 0.53333336
7.5930004 8.6680002 -1.08 0
7.6130004 8.6280003 -1.08 0.21176471
7.6730003 8.6380005 -1.09 0.24313726
7.2030001 9.198 -1.85 0.27058825
7.3630004 9.6380005 -1.67 0.5529412
7.4830003 9.7180004 -1.83 0.050980393
7.4630003 9.7580004 -1.83 0.043137256
7.3830004 9.7280006 -1.6799999 0.18039216
7.3630004 9.7779999 -1.6799999 0.35294119
7.4430003 9.6880007 -1.6799999 0.25098041
7.473 9.698 -1.6799999 0.23137255
7.5430002 9.7080002 -1.83 0.28235295
7.5330005 9.7280006 -1.83 0.19215687
7.5930004 9.7080002 -1.84 0.21176471
7.6430001 9.7080002 -1.84 0.29019609
7.5330005 9.7080002 -1.6900001 0.29019609
7.6030002 9.7379999 -1.7 0.39215687
7.6830001 9.698 -1.85 0.28235295
7.743 9.7180004 -1.85 0.19215687
7.6930003 9.7779999 -1.71 0.17254902
7.8030005 9.7080002 -1.72 0.19215687
7.8030005 9.7379999 -1.72 0.4627451
7.743 9.7880001 -1.72 0.3019608
7.7730002 9.7580004 -1.72 0.29019609
7.2330003 9.2779999 -1.53 0.28235295
7.2330003 9.2980003 -1.53 0.26274511
7.3230004 9.7880001 -1.59 0
7.2830005 9.7580004 -1.53 0
7.3830004 9.7379999 -1.59 0.43137255
7.3430004 9.7580004 -1.59 0.3019608
7.4430003 9.698 -1.59 0.20392157
7.4130001 9.7180004 -1.59 0.34117648
7.243 9.7379999 -1.3 0
7.5230002 9.7379999 -1.61 0.3137255
8.283 8.6880007 -1.79 0.15294118
7.8830004 8.6880007 -1.03 0.3019608
7.9230003 8.6780005 -1.03 0.38039216
7.9630003 8.698 -1.04 0.22352941
8.0030003 8.5679998 -1.03 0.5411765
7.993 8.618 -1.03 0.26274511
7.993 8.6680002 -1.04 0.36078432
8.2329998 8.5480003 -1.41 0.25098041
8.1330004 8.5980005 -1.12 0.41176471
8.1529999 8.6480007 -1.12 0.3019608
8.3830004 8.5679998 -1.34 0.32156864
8.0930004 9.3380003 -1.84 0.12156863
8.0230007 9.448 -1.85 0.18039216
8.033 9.4879999 -1.86 0.27058825
8.0530005 9.4180002 -1.85 0.23137255
8.0830002 9.3880005 -1.85 0.27058825
7.9430003 9.618 -1.86 0.17254902
7.8130002 9.7379999 -1.86 0.22352941
7.9130001 9.7080002 -1.87 0.19215687
7.9430003 9.6780005 -1.87 0.26274511
7.8930001 9.7779999 -1.88 0.20392157
7.9130001 9.7680006 -1.88 0.25098041
7.8530002 9.7080002 -1.72 0.25098041
7.9130001 9.7080002 -1.73 0.32156864
7.9630003 9.7080002 -1.73 0.41176471
8.0030003 9.5080004 -1.86 0.19215687
8.0030003 9.5679998 -1.86 0.25098041
7.973 9.5880003 -1.86 0.23137255
8.0530005 9.7580004 -1.75 0.17254902
7.2130003 8.698 -0.99000001 0
7.1730003 8.698 -0.70999998 0.3019608
7.2030001 8.6680002 -0.70999998 0.32156864
7.223 8.6380005 -0.70999998 0.3019608
7.243 8.6380005 -0.70999998 0.32156864
7.3830004 8.5880003 -0.70999998 0.36078432
7.4230003 8.5780001 -0.70999998 0.22352941
7.4430003 8.5480003 -0.70999998 0.19215687
7.473 8.6880007 -0.64999998 0.48235294
7.4630003 8.7379999 -0.64999998 0.27058825
7.4830003 8.7980003 -0.64999998 0.21176471
7.473 8.8380003 -0.66000003 0.20392157
7.3730001 8.9380007 -0.66000003 0.4627451
7.4030004 8.9180002 -0.66000003 0.49019608
7.3630004 8.9879999 -0.66000003 0.25098041
7.4430003 8.908 -0.66000003 0.33333334
7.473 8.8880005 -0.66000003 0.26274511
7.3830004 9.0380001 -0.66000003 0.18039216
7.4030004 9.118 -0.67000002 0.41176471
7.3930001 9.1680002 -0.67000002 0.23137255
7.5730004 8.6079998 -1 0.41176471
7.6130004 8.6079998 -1 0.26274511
7.6630001 8.6079998 -1.01 0.3019608
7.7130003 8.6079998 -1.01 0.3137255
7.6730003 8.618 -0.94 0.20392157
7.8030005 8.6480007 -1.02 0.48235294
7.743 8.6480007 -0.94 0.3137255
7.493 8.658 -0.64999998 0.42352942
7.5230002 8.6380005 -0.64999998 0.40392157
7.5630002 8.6280003 -0.64999998 0.34117648
7.5830002 8.6079998 -0.64999998 0.43137255
7.6330004 8.5980005 -0.64999998 0.36078432
7.6330004 8.7980003 -0.61000001 0.35294119
7.6130004 8.8380003 -0.61000001 0.41176471
7.6530004 8.5679998 -0.64999998 0.44313726
7.6730003 8.5679998 -0.64999998 0.4627451
7.7130003 8.5580006 -0.64999998 0.41176471
7.6630001 8.5580006 -0.58999997 0.18039216
7.7030001 8.658 -0.60000002 0.3137255
7.7630005 8.5480003 -0.64999998 0.41176471
7.7130003 8.7180004 -0.61000001 0.19215687
7.6930003 8.7580004 -0.61000001 0.21176471
7.6730003 8.7880001 -0.61000001 0.38039216
7.6430001 8.8980007 -0.61000001 0.19215687
7.6530004 8.9580002 -0.61000001 0.18039216
7.6830001 9.0480003 -0.62 0.3019608
7.6930003 9.1780005 -0.63 0.18039216
7.6930003 9.118 -0.62 0.20392157
7.4030004 9.2980003 -0.68000001 0.18039216
7.4130001 9.2480001 -0.68000001 0.23137255
7.4230003 9.3880005 -0.69 0.4509804
7.4430003 9.4680004 -0.69 0.25098041
7.7030001 9.2480001 -0.63 0.3137255
7.7030001 9.3080006 -0.63 0.20392157
7.7130003 9.3480005 -0.63999999 0.18039216
7.723 9.4180002 -0.63999999 0.13333334
7.5330005 9.6480007 -0.70999998 0.17254902
7.7630005 9.5380001 -0.64999998 0.18039216
7.7330003 9.6880007 -0.66000003 0.29019609
7.8330002 8.698 -0.94999999 0.29019609
7.9430003 8.5679998 -0.94999999 0.38039216
7.9530001 8.6079998 -0.95999998 0.26274511
7.8930001 8.698 -0.95999998 0.19215687
7.9530001 8.658 -0.95999998 0.15294118
7.9330001 8.6880007 -0.95999998 0.43137255
8.1529999 8.5480003 -0.52999997 0.20392157
8.1929998 8.6079998 -0.54000002 0.13333334
8.1730003 8.6480007 -0.54000002 0.50196081
8.1730003 8.698 -0.54000002 0.23137255
8.2630005 8.5580006 -0.47 0.39215687
8.2630005 8.5980005 -0.47999999 0.25098041
8.2630005 8.658 -0.47999999 0.25098041
8.1630001 8.8080006 -0.55000001 0.39215687
8.1730003 8.7580004 -0.54000002 0.18039216
8.2630005 8.7080002 -0.47999999 0.21176471
8.283 8.7580004 -0.47999999 0.3019608
8.3430004 8.5880003 -0.40000001 0
8.3430004 8.6280003 -0.41 0
8.3530006 8.6780005 -0.41 0
8.3629999 8.7980003 -0.41 0
8.3629999 8.8579998 -0.41 0.10196079
8.3730001 8.7480001 -0.41 0
8.1730003 8.868 -0.55000001 0.24313726
8.1730003 8.9280005 -0.55000001 0.28235295
8.1929998 8.9680004 -0.55000001 0.26274511
8.283 8.868 -0.49000001 0.43137255
8.2730007 8.9180002 -0.49000001 0.25098041
8.283 8.9879999 -0.49000001 0.25098041
8.2030001 9.0480003 -0.56 0.27058825
8.2230005 9.118 -0.56 0.29019609
8.2230005 9.1780005 -0.56999999 0.28235295
8.283 9.0380001 -0.5 0.28235295
8.283 9.1079998 -0.5 0.3019608
8.3629999 8.9580002 -0.41999999 0
8.3530006 9.0279999 -0.41999999 0
8.3430004 9.0880003 -0.41999999 0
8.3030005 9.1480007 -0.5 0.3019608
8.3330002 9.1380005 -0.41999999 0
7.8230004 9.6680002 -0.66000003 0.12156863
8.2329998 9.2580004 -0.56999999 0.33333334
8.2329998 9.3179998 -0.56999999 0.24313726
8.243 9.3780003 -0.56999999 0.34117648
8.2730007 9.448 -0.57999998 0.3137255
8.2930002 9.198 -0.5 0.27058825
8.2930002 9.2580004 -0.5 0.28235295
8.3430004 9.198 -0.43000001 0
8.3430004 9.2580004 -0.43000001 0
8.3030005 9.3179998 -0.50999999 0.24313726
8.3030005 9.3880005 -0.50999999 0.26274511
8.3030005 9.4380007 -0.50999999 0.18039216
8.3030005 9.4980001 -0.51999998 0.27058825
8.283 9.5180006 -0.57999998 0.35294119
8.283 9.5780001 -0.58999997 0.33333334
8.2730007 9.6880007 -0.58999997 0.38039216
8.2730007 9.7580004 -0.58999997 0.36078432
8.2730007 9.8080006 -0.52999997 0
8.2930002 9.6480007 -0.58999997 0.36078432
8.323 9.5580006 -0.51999998 0.26274511
8.3130007 9.6079998 -0.51999998 0.21176471
8.3130007 9.6680002 -0.51999998 0.41176471
8.323 9.7379999 -0.52999997 0.23137255
8.323 9.7980003 -0.52999997 0.18039216
8.3730001 9.8080006 -0.44999999 0
7.3630004 9.8280001 -1.6900001 0.16078432
7.3030005 9.8380003 -1.54 0.10196079
7.3330002 9.8380003 -1.6 0.13333334
8.283 9.8280001 -0.60000002 0.34117648
8.283 9.8980007 -0.60000002 0.35294119
8.2930002 9.9280005 -0.60000002 0.51372552
8.3730001 9.868 -0.44999999 0.12156863
8.3930006 9.9280005 -0.44999999 0.14117648
8.4230003 9.9280005 -0.38 0.50196081
8.6030006 8.4780006 -1.8 0.23137255
8.5830002 8.5080004 -1.8 0.19215687
8.6830006 8.2680006 -1.78 0.24313726
8.6730003 8.3380003 -1.79 0.28235295
8.6529999 8.3780003 -1.79 0.25098041
8.6929998 8.2980003 -1.79 0.19215687
8.6330004 8.408 -1.79 0.19215687
8.6230001 8.448 -1.8 0.27058825
8.6929998 8.4280005 -1.36 0.3019608
8.4630003 8.2880001 -1.1900001 0.39215687
8.5130005 8.2880001 -1.2 0.34117648
8.4730005 8.3179998 -1.33 0.33333334
8.5030003 8.3080006 -1.27 0.21176471
8.4630003 8.3179998 -1.26 0.25098041
8.5630007 8.2779999 -1.2 0.38039216
8.5430002 8.3280001 -1.33 0.24313726
8.573 8.3280001 -1.27 0.21176471
8.493 8.2779999 -1.04 0.43137255
8.4530001 8.3179998 -1.12 0.35294119
8.5130005 8.3179998 -1.13 0.35294119
8.5430002 8.2779999 -1.05 0.43137255
8.5830002 8.2880001 -1.05 0.4509804
8.5630007 8.3179998 -1.13 0.35294119
8.5930004 8.3280001 -1.13 0.38039216
8.6129999 8.2779999 -1.2 0.36078432
8.6730003 8.2779999 -1.21 0.36078432
8.6230001 8.3179998 -1.28 0.16078432
8.6730003 8.3179998 -1.28 0.16078432
8.7230005 8.2779999 -1.21 0.3137255
8.7230005 8.3179998 -1.29 0.14117648
8.6330004 8.2880001 -1.05 0.34117648
8.6730003 8.2680006 -1.0599999 0.5529412
8.6529999 8.3179998 -1.14 0.36078432
8.743 8.2779999 -1.0599999 0.3019608
8.7130003 8.3380003 -1.14 0.36078432
8.7530003 8.3179998 -1.15 0.34117648
8.783 8.2880001 -1.22 0.34117648
8.823 8.2980003 -1.22 0.38039216
8.783 8.3179998 -1.29 0.27058825
8.823 8.3280001 -1.3 0.20392157
8.8629999 8.2880001 -1.23 0.23137255
8.9130001 8.2779999 -1.23 0.18039216
8.9230003 8.368 -1.3099999 0.34117648
8.7730007 8.2580004 -1.0599999 0.52156866
8.8430004 8.2779999 -1.0700001 0.3137255
8.8030005 8.3080006 -1.15 0.32156864
8.8830004 8.2580004 -1.0700001 0.56078434
8.8629999 8.3179998 -1.15 0.36078432
8.9130001 8.3080006 -1.16 0.37254903
8.9630003 8.2680006 -1.23 0.17254902
8.9730005 8.3579998 -1.3099999 0.4627451
9.0130005 8.2580004 -1.24 0.050980393
9.0630007 8.2580004 -1.24 0
9.033 8.368 -1.3200001 0.41176471
8.9530001 8.2680006 -1.08 0.33333334
8.9829998 8.2680006 -1.08 0.5529412
8.9530001 8.3179998 -1.16 0.35294119
9.0430002 8.2779999 -1.09 0.3137255
9.0830002 8.2580004 -1.09 0.5529412
9.0130005 8.3280001 -1.17 0.34117648
9.0630007 8.3179998 -1.17 0.35294119
9.2930002 8.4980001 -1.35 0.21176471
9.1430006 8.2779999 -1.25 0
9.0930004 8.368 -1.3200001 0.38039216
9.1830006 8.2880001 -1.25 0.14117648
9.2329998 8.2779999 -1.26 0.10196079
9.1529999 8.2680006 -1.09 0.3137255
9.1129999 8.3179998 -1.17 0.35294119
9.2030001 8.2580004 -1.1 0.5411765
9.1730003 8.3179998 -1.1799999 0.34117648
9.2230005 8.3080006 -1.1799999 0.3019608
9.2930002 8.2779999 -1.26 0.19215687
9.2930002 8.3179998 -1.1900001 0.37254903
9.3530006 8.2779999 -1.27 0.25098041
9.3330002 8.3280001 -1.1900001 0.37254903
9.3930006 8.3280001 -1.2 0.34117648
9.3130007 8.2580004 -1.11 0.5529412
9.2730007 8.2680006 -1.1 0.33333334
9.323 8.2680006 -1.03 0.33333334
9.3730001 8.2779999 -1.11 0.32156864
9.3730001 8.2680006 -1.03 0.41176471
9.4330006 8.2980003 -1.28 0.48235294
9.4530001 8.3280001 -1.2 0.36078432
9.5130005 8.3179998 -1.29 0.27058825
9.5030003 8.3179998 -1.21 0.32156864
9.5530005 8.3080006 -1.21 0.21176471
9.4130001 8.2680006 -1.11 0.5529412
9.4829998 8.2779999 -1.12 0.32156864
9.4330006 8.2580004 -1.04 0.42352942
9.4730005 8.2779999 -1.04 0.43137255
9.5230007 8.2580004 -1.12 0.52156866
9.533 8.2680006 -1.04 0.34117648
9.573 8.3080006 -1.29 0.36078432
9.6330004 8.3380003 -1.3 0.25098041
9.6129999 8.3179998 -1.22 0.18039216
9.6630001 8.2980003 -1.22 0.13333334
9.7130003 8.2880001 -1.22 0.062745102
9.6030006 8.2680006 -1.13 0.3019608
9.6430006 8.2580004 -1.13 0.50196081
9.5830002 8.2580004 -1.05 0.41176471
9.6430006 8.2680006 -1.05 0.41176471
9.7130003 8.2680006 -1.14 0.3019608
9.7030001 8.2580004 -1.0599999 0.39215687
8.4530001 8.2980003 -0.97000003 0.35294119
8.493 8.2779999 -0.97000003 0.4509804
8.4630003 8.2980003 -0.88999999 0.29019609
8.5130005 8.2880001 -0.89999998 0.29019609
8.5430002 8.2779999 -0.97000003 0.43137255
8.6030006 8.2880001 -0.98000002 0.36078432
8.5630007 8.2880001 -0.89999998 0.27058825
8.6030006 8.2680006 -0.89999998 0.29019609
8.4530001 8.2880001 -0.75 0
8.5130005 8.2880001 -0.75999999 0
8.4630003 8.3280001 -0.81999999 0.39215687
8.5130005 8.3179998 -0.82999998 0.40392157
8.5530005 8.2779999 -0.75999999 0
8.6030006 8.2779999 -0.75999999 0
8.5630007 8.3179998 -0.82999998 0.41176471
8.6430006 8.2680006 -0.98000002 0.43137255
8.6529999 8.2580004 -0.89999998 0.3019608
8.7030001 8.2779999 -0.99000001 0.35294119
8.7329998 8.2779999 -0.99000001 0.4509804
8.7230005 8.2779999 -0.91000003 0.29019609
8.7630005 8.2680006 -0.91000003 0.29019609
8.6630001 8.2980003 -0.76999998 0
8.6730003 8.2680006 -0.75999999 0.17254902
8.6129999 8.3080006 -0.82999998 0.44313726
8.6529999 8.3280001 -0.83999997 0.33333334
8.7030001 8.3179998 -0.83999997 0.40392157
8.7530003 8.3179998 -0.83999997 0.42352942
8.4530001 8.368 -0.68000001 0.4627451
8.5130005 8.3780003 -0.68000001 0.32156864
8.4730005 8.3179998 -0.62 0.35294119
8.5030003 8.3179998 -0.62 0.40392157
8.533 8.368 -0.69 0.48235294
8.5530005 8.3080006 -0.62 0.35294119
8.4730005 8.2680006 -0.52999997 0
8.4829998 8.3179998 -0.47 0.21176471
8.493 8.3280001 -0.54000002 0
8.573 8.2880001 -0.47999999 0.18039216
8.5530005 8.3380003 -0.47999999 0.25098041
8.5830002 8.3179998 -0.47999999 0.15294118
8.6030006 8.3880005 -0.69 0.28235295
8.6129999 8.3179998 -0.63 0.38039216
8.6330004 8.3579998 -0.69 0.48235294
8.6529999 8.3080006 -0.63 0.37254903
8.6129999 8.3480005 -0.55000001 0.59215689
8.6830006 8.368 -0.55000001 0.25098041
8.7030001 8.2980003 -0.63 0.35294119
8.6929998 8.3780003 -0.69 0.29019609
8.7630005 8.3080006 -0.63 0.43137255
8.743 8.368 -0.69999999 0.33333334
8.7130003 8.3579998 -0.55000001 0.41176471
8.7630005 8.3579998 -0.55000001 0.3137255
8.6430006 8.2980003 -0.47999999 0.18039216
8.783 8.2779999 -0.99000001 0.38039216
8.8430004 8.2779999 -1 0.36078432
8.8130007 8.2779999 -0.92000002 0.29019609
8.8830004 8.2680006 -1 0.4509804
8.8530006 8.2779999 -0.92000002 0.3137255
8.9130001 8.2779999 -0.92000002 0.3019608
8.8030005 8.3179998 -0.85000002 0.44313726
8.7730007 8.3080006 -0.76999998 0.29019609
8.8330002 8.3080006 -0.77999997 0.44313726
8.9230003 8.2880001 -0.77999997 0.39215687
8.8730001 8.3179998 -0.85000002 0.34117648
8.9130001 8.3080006 -0.85000002 0.43137255
8.8830004 8.3080006 -0.77999997 0.37254903
8.9429998 8.2680006 -1 0.36078432
8.9630003 8.2680006 -0.93000001 0.29019609
9.0130005 8.2779999 -1.01 0.43137255
9.0530005 8.2680006 -1.01 0.36078432
9.0130005 8.2580004 -0.93000001 0.3019608
9.073 8.2680006 -0.93000001 0.3019608
8.993 8.2980003 -0.79000002 0.35294119
8.9630003 8.3080006 -0.86000001 0.35294119
9.0030003 8.3080006 -0.86000001 0.4509804
8.9829998 8.3480005 -0.70999998 0.39215687
9.033 8.2880001 -0.79000002 0.36078432
9.073 8.2980003 -0.79000002 0.33333334
9.0530005 8.3080006 -0.86000001 0.34117648
9.033 8.3480005 -0.70999998 0.38039216
9.0830002 8.3480005 -0.70999998 0.53333336
8.8030005 8.2980003 -0.63999999 0.32156864
8.783 8.3480005 -0.69999999 0.42352942
8.8330002 8.3480005 -0.69999999 0.4509804
8.8130007 8.3579998 -0.55000001 0.42352942
8.8530006 8.3080006 -0.63999999 0.43137255
8.8830004 8.368 -0.69999999 0.32156864
8.9130001 8.3179998 -0.63999999 0.41176471
8.9230003 8.3480005 -0.69999999 0.43137255
8.8629999 8.3480005 -0.56 0.38039216
8.9130001 8.3380003 -0.56 0.38039216
8.8629999 8.2980003 -0.49000001 0.34117648
8.9130001 8.2880001 -0.49000001 0.38039216
9.0030003 8.2980003 -0.64999998 0.43137255
8.9630003 8.3080006 -0.63999999 0.34117648
8.9730005 8.3480005 -0.56 0.38039216
9.073 8.3080006 -0.64999998 0.38039216
9.0230007 8.3380003 -0.56 0.36078432
9.0630007 8.3480005 -0.56999999 0.35294119
8.9730005 8.2880001 -0.49000001 0.39215687
9.0130005 8.2980003 -0.5 0.37254903
9.0630007 8.2980003 -0.5 0.38039216
8.573 8.3780003 0.029999999 0
8.493 8.448 -0.050000001 0.12156863
8.493 8.408 0.029999999 0.21176471
8.493 8.4580002 0.029999999 0.19215687
8.5030003 8.5080004 0.029999999 0.20392157
8.533 8.4380007 -0.050000001 0
8.533 8.3880005 0.029999999 0.12156863
8.6230001 8.3780003 0.029999999 0.23137255
8.6830006 8.3780003 0.029999999 0.43137255
8.7130003 8.3780003 0.029999999 0.19215687
8.7530003 8.4580002 0.1 0
8.7530003 8.5180006 0.1 0
8.823 8.3780003 0.029999999 0.16078432
8.8830004 8.3780003 0.029999999 0.16078432
8.783 8.3880005 0.029999999 0.18039216
8.783 8.4380007 0.1 0
8.7930002 8.4280005 0.1 0
8.8530006 8.4280005 0.1 0
8.9029999 8.4180002 0.1 0
8.9330006 8.3780003 0.029999999 0.16078432
8.9829998 8.368 0.029999999 0.13333334
9.033 8.368 0.029999999 0.18039216
9.073 8.3780003 0.029999999 0.22352941
8.9730005 8.4280005 0.1 0
9.0130005 8.4180002 0.1 0
9.0530005 8.3980007 0.1 0
9.0930004 8.2680006 -1.01 0.40392157
9.1430006 8.2680006 -1.02 0.42352942
9.1230001 8.2580004 -0.94 0.28235295
9.1630001 8.2980003 -0.87 0.41176471
9.1129999 8.3080006 -0.87 0.41176471
9.2230005 8.2880001 -1.02 0.34117648
9.1730003 8.2580004 -0.94 0.27058825
9.2130003 8.2580004 -0.94 0.28235295
9.2130003 8.2980003 -0.87 0.41176471
9.1330004 8.2980003 -0.80000001 0.39215687
9.1630001 8.368 -0.72000003 0.29019609
9.1830006 8.2980003 -0.80000001 0.34117648
9.243 8.2980003 -0.80000001 0.36078432
9.2130003 8.3579998 -0.72000003 0.5411765
9.2730007 8.2580004 -0.94999999 0.28235295
9.2630005 8.2680006 -1.02 0.43137255
9.2730007 8.2980003 -0.87 0.40392157
9.323 8.2880001 -0.88 0.40392157
9.3330002 8.2580004 -0.94999999 0.28235295
9.3830004 8.2580004 -0.94999999 0.3137255
9.3629999 8.2980003 -0.88 0.40392157
9.3030005 8.2980003 -0.80000001 0.38039216
9.2930002 8.3480005 -0.72000003 0.5411765
9.3530006 8.2880001 -0.81 0.37254903
9.3830004 8.3280001 -0.73000002 0.13333334
9.1230001 8.2980003 -0.64999998 0.39215687
9.1129999 8.3380003 -0.56999999 0.36078432
9.1730003 8.2980003 -0.64999998 0.37254903
9.243 8.2980003 -0.66000003 0.38039216
9.1730003 8.3380003 -0.56999999 0.38039216
9.2230005 8.3380003 -0.56999999 0.37254903
9.1129999 8.2880001 -0.5 0.38039216
9.1630001 8.368 -0.41999999 0.21176471
9.1730003 8.2880001 -0.5 0.39215687
9.2130003 8.2779999 -0.5 0.16078432
9.1730003 8.3480005 -0.41999999 0.34117648
9.2230005 8.3380003 -0.43000001 0.15294118
9.2730007 8.3080006 -0.66000003 0.40392157
9.2730007 8.3280001 -0.56999999 0.37254903
9.323 8.3280001 -0.57999998 0.35294119
9.3330002 8.2980003 -0.66000003 0.39215687
9.3830004 8.2880001 -0.67000002 0.38039216
9.3830004 8.3280001 -0.57999998 0.40392157
9.2630005 8.3179998 -0.43000001 0.13333334
9.3030005 8.3080006 -0.43000001 0.070588239
9.3430004 8.2779999 -0.50999999 0
9.3830004 8.2880001 -0.50999999 0
9.3530006 8.2980003 -0.43000001 0
9.2930002 8.5380001 -0.44 0.26274511
9.4429998 8.2480001 -0.95999998 0.28235295
9.4829998 8.2980003 -0.88999999 0.39215687
9.4330006 8.3080006 -0.88 0.41176471
9.5030003 8.2480001 -0.95999998 0.3137255
9.5530005 8.2480001 -0.95999998 0.28235295
9.5530005 8.3080006 -0.88999999 0.40392157
9.4130001 8.2880001 -0.81 0.38039216
9.4429998 8.2880001 -0.81 0.39215687
9.4330006 8.3179998 -0.73000002 0.15294118
9.5130005 8.2980003 -0.81999999 0.34117648
9.5630007 8.2880001 -0.81999999 0.40392157
9.5030003 8.3280001 -0.74000001 0.13333334
9.5930004 8.2580004 -0.97000003 0.27058825
9.5930004 8.2980003 -0.88999999 0.41176471
9.6529999 8.2580004 -0.97000003 0.28235295
9.7130003 8.2480001 -0.98000002 0.29019609
9.6529999 8.2880001 -0.89999998 0.41176471
9.7230005 8.2980003 -0.89999998 0.41176471
9.6330004 8.2980003 -0.81999999 0.36078432
9.573 8.3380003 -0.74000001 0.35294119
9.6030006 8.3380003 -0.74000001 0.52156866
9.6830006 8.2779999 -0.82999998 0.33333334
9.6730003 8.3480005 -0.75 0.47058824
9.4429998 8.2880001 -0.67000002 0.38039216
9.4330006 8.3380003 -0.57999998 0.34117648
9.4829998 8.3380003 -0.57999998 0.40392157
9.493 8.2779999 -0.67000002 0.38039216
9.5530005 8.2779999 -0.67000002 0.38039216
9.533 8.3280001 -0.58999997 0.43137255
9.4330006 8.2779999 -0.50999999 0
9.4130001 8.2980003 -0.43000001 0
9.4730005 8.2980003 -0.43000001 0
9.5130005 8.2980003 -0.51999998 0
9.5530005 8.2880001 -0.51999998 0.050980393
9.533 8.2980003 -0.44 0
9.6129999 8.2779999 -0.68000001 0.38039216
9.6030006 8.3380003 -0.58999997 0.35294119
9.6630001 8.2980003 -0.68000001 0.38039216
9.7130003 8.2880001 -0.68000001 0.36078432
9.6529999 8.3280001 -0.58999997 0.43137255
9.7130003 8.3280001 -0.58999997 0.36078432
9.5930004 8.2680006 -0.51999998 0
9.6230001 8.2980003 -0.44 0
9.573 8.3080006 -0.44 0
9.6630001 8.2779999 -0.51999998 0
9.7230005 8.2680006 -0.51999998 0
9.6830006 8.2980003 -0.44 0
9.1230001 8.2980003 -0.34999999 0.38039216
9.2130003 8.3280001 -0.34999999 0.14117648
9.1230001 8.3380003 -0.2 0
9.1830006 8.3380003 -0.2 0.13333334
9.1929998 8.3780003 -0.12 0.12156863
9.2329998 8.3880005 -0.13 0.16078432
9.2630005 8.3480005 -0.36000001 0.17254902
9.3130007 8.3380003 -0.36000001 0.18039216
9.3030005 8.3780003 -0.28 0.16078432
9.3629999 8.3380003 -0.36000001 0.050980393
9.3530006 8.368 -0.28999999 0.14117648
9.3830004 8.368 -0.28999999 0.070588239
9.2530003 8.3480005 -0.2 0.20392157
9.2930002 8.3280001 -0.2 0.062745102
9.283 8.3780003 -0.13 0
9.3830004 8.3579998 -0.2 0
9.2530003 8.4680004 -0.36000001 0.23137255
9.3730001 8.408 -0.13 0
9.1330004 8.3780003 0.029999999 0.17254902
9.1730003 8.3579998 0.029999999 0.11372549
9.1830006 8.4180002 -0.059999999 0
9.2230005 8.3980007 -0.059999999 0.11372549
9.1129999 8.3980007 0.1 0
9.1630001 8.3880005 0.1 0
9.1929998 8.3980007 0.1 0
9.1830006 8.5279999 0.18000001 0.070588239
9.2329998 8.5279999 0.18000001 0
9.2530003 8.368 -0.059999999 0.050980393
9.2530003 8.3780003 0.029999999 0.18039216
9.3030005 8.3780003 0.02 0.082352944
9.3629999 8.3780003 0.02 0.050980393
9.3430004 8.3980007 -0.059999999 0
9.3730001 8.3980007 -0.059999999 0
9.2630005 8.408 0.1 0
9.3030005 8.5279999 0.18000001 0
9.3430004 8.4280005 0.1 0
9.3830004 8.408 0.1 0
9.3530006 8.5279999 0.18000001 0
9.4029999 8.5180006 0.18000001 0
9.4330006 8.3380003 -0.36000001 0
9.4829998 8.3280001 -0.36000001 0
9.4530001 8.3780003 -0.28999999 0
9.533 8.3280001 -0.37 0
9.5630007 8.368 -0.28999999 0.12156863
9.4130001 8.3280001 -0.2 0.070588239
9.4630003 8.3480005 -0.20999999 0
9.5230007 8.3480005 -0.20999999 0
9.5230007 8.3880005 -0.28999999 0
9.4130001 8.3880005 -0.13 0
9.4829998 8.3980007 -0.13 0
9.5030003 8.408 -0.07 0
9.533 8.3880005 -0.13 0
9.5630007 8.408 -0.07 0
9.6230001 8.3480005 -0.37 0
9.6230001 8.3780003 -0.28999999 0.11372549
9.6529999 8.3380003 -0.37 0
9.6730003 8.368 -0.28999999 0
9.5930004 8.3579998 -0.20999999 0
9.5930004 8.3880005 -0.13 0
9.6330004 8.3980007 -0.13 0
9.6230001 8.408 -0.07 0
9.6730003 8.3980007 -0.07 0
9.4230003 8.3980007 -0.059999999 0
9.4530001 8.408 0.02 0
9.493 8.408 0.02 0
9.5430002 8.3980007 0.02 0
9.4330006 8.3980007 0.1 0
9.4230003 8.5080004 0.18000001 0
9.5230007 8.4280005 0.1 0
9.5530005 8.4580002 0.23999999 0
9.5230007 8.4879999 0.23999999 0
9.5030003 8.5279999 0.18000001 0
9.493 8.5080004 0.23999999 0
9.5630007 8.5279999 0.18000001 0
9.5930004 8.3880005 0.02 0
9.6529999 8.3880005 0.02 0
9.7130003 8.3980007 0.02 0.29019609
9.573 8.4180002 0.1 0
9.6129999 8.4280005 0.1 0
9.6030006 8.4580002 0.23999999 0
9.6129999 8.5180006 0.18000001 0
9.6630001 8.408 0.1 0
9.7230005 8.408 0.1 0
9.6529999 8.4380007 0.23999999 0
9.7030001 8.4280005 0.23999999 0
9.6630001 8.5080004 0.18000001 0
9.7030001 8.4879999 0.18000001 0
9.8830004 8.4580002 -1.8 0.3137255
9.8830004 8.5080004 -1.8099999 0.35294119
9.9630003 8.3380003 -1.8 0.32156864
9.9330006 8.368 -1.8 0.28235295
9.9829998 8.2480001 -1.79 0.3137255
9.9730005 8.2880001 -1.79 0.32156864
9.9230003 8.3880005 -1.8 0.3137255
9.9230003 8.4380007 -1.8 0.34117648
10.153 8.3780003 -1.67 0.11372549
10.243 8.2379999 -1.67 0.34117648
10.273001 8.2880001 -1.74 0.11372549
10.273001 8.3380003 -1.74 0.15294118
10.293 8.2580004 -1.74 0.51372552
10.343 8.2379999 -1.74 0.17254902
9.783 8.3280001 -1.23 0
9.8430004 8.3280001 -1.24 0
9.8830004 8.3080006 -1.24 0.10196079
9.7530003 8.2680006 -1.14 0.50196081
9.7530003 8.2480001 -1.0599999 0.39215687
9.823 8.2779999 -1.15 0.3019608
9.8730001 8.2680006 -1.15 0.51372552
9.823 8.2580004 -1.0700001 0.38039216
9.8629999 8.2680006 -1.0700001 0.40392157
9.9630003 8.3179998 -1.25 0
9.9330006 8.2680006 -1.15 0.32156864
9.9230003 8.2680006 -1.0700001 0.38039216
10.043 8.2980003 -1.16 0.14117648
9.9829998 8.2580004 -1.08 0.38039216
10.093 8.2580004 -1.5700001 0.5411765
10.153 8.2779999 -1.66 0
10.183001 8.2480001 -1.66 0.23137255
10.163 8.2980003 -1.58 0.20392157
10.203 8.2680006 -1.58 0.4509804
10.133 8.3080006 -1.66 0
10.133 8.3480005 -1.58 0.21176471
10.073 8.2779999 -1.48 0.40392157
10.123 8.2880001 -1.41 0.36078432
10.063001 8.3179998 -1.48 0.20392157
10.093 8.3179998 -1.41 0.12156863
10.103001 8.3780003 -1.42 0.14117648
10.163 8.2680006 -1.41 0.4509804
10.203 8.2480001 -1.42 0.29019609
10.133 8.3980007 -1.58 0.14117648
10.253 8.2580004 -1.58 0.19215687
10.343 8.2779999 -1.59 0.17254902
10.263 8.2580004 -1.35 0.22352941
10.313001 8.2880001 -1.4299999 0.18039216
10.363 8.2680006 -1.4299999 0.20392157
10.303 8.2379999 -1.35 0.20392157
10.253 8.5279999 -1.4400001 0.20392157
10.063001 8.2580004 -1.33 0.16078432
10.123 8.2880001 -1.26 0
10.063001 8.3080006 -1.33 0.22352941
10.063001 8.3579998 -1.34 0.25098041
10.153 8.2880001 -1.26 0.35294119
10.143001 8.3579998 -1.26 0
10.103001 8.2480001 -1.17 0.49019608
10.093 8.2880001 -1.17 0.20392157
10.133 8.2379999 -1.17 0.4509804
10.193 8.2379999 -1.17 0.41176471
10.153 8.2980003 -1.09 0.18039216
10.183001 8.2680006 -1.09 0.33333334
10.123 8.3980007 -1.26 0.062745102
10.273001 8.2779999 -1.27 0.17254902
10.213 8.2779999 -1.26 0.39215687
10.263 8.2379999 -1.1799999 0.22352941
10.223001 8.2379999 -1.1 0.39215687
10.263 8.2580004 -1.1 0.39215687
10.323 8.2379999 -1.1799999 0.15294118
10.333 8.2480001 -1.1 0.29019609
10.343 8.368 -1.03 0.090196081
10.403 8.2580004 -1.75 0.3019608
10.463 8.2480001 -1.75 0.26274511
10.443 8.5380001 -1.78 0.16078432
10.543 8.2680006 -1.76 0.3019608
10.663 8.3080006 -1.78 0.34117648
10.713 8.2379999 -1.78 0.29019609
10.703 8.2779999 -1.78 0.29019609
10.443 8.3080006 -1.61 0.16078432
10.513 8.3080006 -1.61 0.090196081
10.443 8.2580004 -1.4400001 0.12156863
10.433001 8.2980003 -1.4400001 0.42352942
10.383 8.2480001 -1.36 0.26274511
10.413 8.2379999 -1.36 0.12156863
10.493 8.2480001 -1.37 0.12156863
10.563001 8.2980003 -1.62 0.26274511
10.593 8.2880001 -1.62 0.32156864
10.643001 8.2779999 -1.63 0.36078432
10.553 8.2880001 -1.45 0.34117648
10.603001 8.2680006 -1.46 0.12156863
10.553 8.2480001 -1.37 0
10.633 8.2580004 -1.38 0.32156864
10.403 8.2779999 -1.28 0
10.423 8.2680006 -1.1900001 0.3019608
10.403 8.3280001 -1.28 0.12156863
10.473001 8.2779999 -1.29 0
10.523001 8.2680006 -1.29 0
10.483 8.2580004 -1.2 0.32156864
10.523001 8.2379999 -1.2 0.32156864
10.443 8.2379999 -1.11 0.29019609
10.443 8.2379999 -1.03 0.20392157
10.513 8.2379999 -1.12 0.36078432
10.493 8.2480001 -1.03 0.082352944
10.423 8.4879999 -1.04 0.20392157
10.543 8.2580004 -1.29 0
10.573 8.2480001 -1.21 0.4509804
10.663 8.2980003 -1.3 0.57254905
10.623 8.2280006 -1.21 0.36078432
10.573 8.2280006 -1.12 0.48235294
10.673 8.2580004 -1.13 0.20392157
10.693 8.2580004 -1.63 0.23137255
10.713 8.2480001 -1.47 0.27058825
10.753 8.2280006 -1.47 0.16078432
10.843 8.2680006 -1.48 0.4627451
10.843 8.2480001 -1.4 0.36078432
11.003 8.2379999 -1.41 0.47058824
10.993 8.2880001 -1.42 0.32156864
10.963 8.3179998 -1.42 0.5411765
10.693 8.2379999 -1.22 0.42352942
10.773001 8.2680006 -1.3099999 0.34117648
10.753 8.3980007 -1.0599999 0.11372549
10.963 8.2779999 -1.24 0.51372552
10.993 8.2379999 -1.24 0.25098041
10.943 8.3780003 -1.24 0.53333336
10.973001 8.3380003 -1.24 0.25098041
10.923 8.3179998 -1.0700001 0.18039216
10.973001 8.2980003 -1.16 0.39215687
10.943 8.2680006 -1.0599999 0.29019609
10.933001 8.3179998 -1.15 0.33333334
10.933001 8.368 -1.0700001 0.22352941
10.913 8.4180002 -1.0700001 0.36078432
10.903 8.4580002 -1.0700001 0.3019608
10.943 8.3880005 -1.16 0.27058825
10.953 8.4180002 -1.16 0.40392157
9.7730007 8.2480001 -0.98000002 0.32156864
9.7630005 8.2779999 -0.89999998 0.41176471
9.8330002 8.2480001 -0.99000001 0.28235295
9.8130007 8.2980003 -0.91000003 0.39215687
9.8629999 8.2779999 -0.91000003 0.37254903
9.743 8.2779999 -0.82999998 0.39215687
9.8030005 8.2779999 -0.82999998 0.36078432
9.743 8.3480005 -0.75 0.42352942
9.8030005 8.3480005 -0.75 0.4627451
9.8430004 8.2880001 -0.83999997 0.36078432
9.8730001 8.3579998 -0.75999999 0.38039216
9.8930006 8.2480001 -0.99000001 0.3137255
9.9630003 8.2480001 -0.99000001 0.3019608
9.9230003 8.2779999 -0.92000002 0.39215687
10.003 8.2580004 -1 0.29019609
9.9829998 8.2779999 -0.92000002 0.40392157
10.033 8.2680006 -0.92000002 0.41176471
9.8930006 8.2779999 -0.83999997 0.35294119
9.9630003 8.2880001 -0.83999997 0.39215687
9.9130001 8.3380003 -0.75999999 0.4627451
10.023001 8.2779999 -0.85000002 0.35294119
9.9829998 8.3380003 -0.75999999 0.34117648
10.033 8.3280001 -0.75999999 0.51372552
9.7630005 8.2779999 -0.68000001 0.34117648
9.7630005 8.3080006 -0.60000002 0.43137255
9.823 8.2779999 -0.69 0.25098041
9.8830004 8.2680006 -0.69 0.16078432
9.8130007 8.3280001 -0.60000002 0.36078432
9.8730001 8.3280001 -0.60000002 0.40392157
9.7730007 8.2880001 -0.52999997 0
9.743 8.2980003 -0.44 0
9.7930002 8.2880001 -0.44999999 0
9.8830004 8.2779999 -0.52999997 0
9.8530006 8.2880001 -0.44999999 0
9.8530006 8.3080006 -0.52999997 0
9.9230003 8.2580004 -0.69 0.12156863
9.9330006 8.3280001 -0.61000001 0.34117648
9.9829998 8.2580004 -0.69 0
9.9829998 8.3179998 -0.61000001 0.41176471
9.9530001 8.2779999 -0.52999997 0.39215687
9.9330006 8.2980003 -0.44999999 0
10.003 8.2680006 -0.54000002 0.28235295
9.9730005 8.2980003 -0.44999999 0
10.013 8.2880001 -0.44999999 0
10.073 8.2580004 -1 0.26274511
10.093 8.2680006 -0.93000001 0.38039216
10.083 8.2680006 -0.85000002 0.39215687
10.083 8.3480005 -0.76999998 0.32156864
10.143001 8.2680006 -0.86000001 0.36078432
10.133 8.3280001 -0.76999998 0.51372552
10.333 8.2580004 -1.02 0
10.333 8.3080006 -1.02 0
10.263 8.2880001 -0.70999998 0.38039216
10.213 8.3380003 -0.76999998 0.34117648
10.263 8.3280001 -0.77999997 0.53333336
10.313001 8.2779999 -0.70999998 0.47058824
10.363 8.2680006 -0.70999998 0.40392157
10.323 8.3280001 -0.77999997 0.32156864
10.053 8.2779999 -0.69999999 0
10.113 8.2779999 -0.69999999 0
10.053 8.3179998 -0.61000001 0.33333334
10.113 8.3179998 -0.61000001 0.41176471
10.163 8.2680006 -0.69999999 0
10.173 8.3179998 -0.62 0.35294119
10.063001 8.2680006 -0.54000002 0.43137255
10.123 8.2580004 -0.54000002 0.37254903
10.083 8.2880001 -0.46000001 0
10.183001 8.2580004 -0.54000002 0.40392157
10.143001 8.2880001 -0.46000001 0
10.203 8.2880001 -0.46000001 0
10.193 8.3480005 -0.38999999 0
10.233 8.2680006 -0.55000001 0.37254903
10.223001 8.3280001 -0.62 0.39215687
10.283 8.3280001 -0.62 0.41176471
10.293 8.2680006 -0.55000001 0.39215687
10.353001 8.2580004 -0.55000001 0.37254903
10.343 8.3179998 -0.62 0.34117648
10.263 8.2779999 -0.46000001 0
10.223001 8.3179998 -0.38999999 0
10.333 8.2779999 -0.47 0
10.293 8.3179998 -0.38999999 0
9.7630005 8.3280001 -0.37 0.070588239
9.7329998 8.3579998 -0.37 0
9.8430004 8.3480005 -0.38 0
9.8830004 8.3280001 -0.38 0
9.8629999 8.3480005 -0.20999999 0
9.8530006 8.3880005 -0.30000001 0.062745102
9.8330002 8.4180002 -0.14 0
9.8430004 8.408 -0.07 0
9.8730001 8.3980007 -0.14 0
9.9429998 8.3280001 -0.38 0
9.9130001 8.3780003 -0.30000001 0
10.023001 8.3380003 -0.38 0
10.023001 8.368 -0.31 0
9.9330006 8.3480005 -0.22 0
9.9130001 8.408 -0.07 0
9.9330006 8.3980007 -0.14 0
9.9829998 8.3880005 -0.14 0
10.043 8.3980007 -0.14 0
9.7630005 8.3780003 0.02 0.17254902
9.823 8.3780003 0.02 0.13333334
9.7730007 8.408 0.1 0
9.743 8.408 0.23999999 0
9.7930002 8.4280005 0.23999999 0
9.743 8.4680004 0.18000001 0
9.783 8.4780006 0.18000001 0
9.8430004 8.408 0.1 0
9.8530006 8.4280005 0.23999999 0
9.8430004 8.4780006 0.18000001 0
9.8930006 8.3880005 0.02 0.16078432
9.9330006 8.3980007 0.02 0.18039216
10.003 8.3980007 0.02 0.16078432
9.9029999 8.408 0.1 0
9.9429998 8.3880005 0.1 0
9.9130001 8.4280005 0.23999999 0
9.9630003 8.408 0.23999999 0
9.9530001 8.4580002 0.18000001 0
9.8930006 8.4680004 0.18000001 0
10.003 8.408 0.1 0
10.013 8.4580002 0.18000001 0
10.043 8.4280005 0.23999999 0
10.063001 8.3480005 -0.38 0
10.113 8.3380003 -0.38 0
10.103001 8.3780003 -0.31 0
10.163 8.3780003 -0.31 0
10.143001 8.368 -0.22 0
10.173 8.3380003 -0.22 0
10.103001 8.3980007 -0.14 0
10.093 8.408 -0.079999998 0
10.173 8.408 -0.15000001 0
10.163 8.408 -0.079999998 0
10.193 8.408 -0.079999998 0
10.233 8.3780003 -0.31 0
10.273001 8.3780003 -0.31 0
10.313001 8.368 -0.31 0.082352944
10.333 8.3380003 -0.23 0.14117648
10.223001 8.3280001 -0.22 0
10.273001 8.3780003 -0.15000001 0
10.273001 8.368 -0.079999998 0
10.303 8.3579998 -0.22 0
10.323 8.368 -0.15000001 0
10.353001 8.3780003 -0.079999998 0
10.213 8.3880005 -0.15000001 0
10.233 8.3880005 -0.079999998 0
10.103001 8.4280005 0.02 0.14117648
10.183001 8.3880005 0.02 0.12156863
10.063001 8.408 0.1 0
10.113 8.3980007 0.1 0
10.083 8.3980007 0.23999999 0
10.073 8.4580002 0.18000001 0
10.173 8.3880005 0.1 0
10.153 8.408 0.23999999 0
10.143001 8.4580002 0.18000001 0
10.193 8.408 0.23999999 0
10.183001 8.4380007 0.18000001 0
10.233 8.3780003 0.0099999998 0.21176471
10.273001 8.3480005 0.0099999998 0.23137255
10.343 8.3780003 0.0099999998 0.23137255
10.223001 8.3780003 0.1 0
10.253 8.408 0.23999999 0
10.243 8.4680004 0.18000001 0
10.303 8.3880005 0.1 0
10.323 8.408 0.23999999 0
10.313001 8.4680004 0.18000001 0
10.403 8.2580004 -1.02 0
10.433001 8.2680006 -0.72000003 0.37254903
10.443 8.3080006 -0.79000002 0.36078432
10.383 8.3179998 -0.77999997 0.4509804
10.493 8.2880001 -0.72000003 0.37254903
10.483 8.3179998 -0.79000002 0.41176471
10.553 8.2880001 -0.73000002 0.36078432
10.543 8.3080006 -0.79000002 0.36078432
10.613 8.2779999 -0.73000002 0.43137255
10.673 8.2680006 -0.73000002 0.34117648
10.613 8.3080006 -0.80000001 0.42352942
10.673 8.3080006 -0.80000001 0.41176471
10.413 8.2580004 -0.55000001 0.38039216
10.403 8.3080006 -0.63 0.41176471
10.473001 8.2480001 -0.56 0.39215687
10.463 8.3080006 -0.63 0.36078432
10.383 8.2880001 -0.47 0
10.443 8.2980003 -0.47 0
10.383 8.3380003 -0.38999999 0
10.423 8.3179998 -0.38999999 0
10.503 8.2779999 -0.47 0
10.483 8.3080006 -0.40000001 0
10.543 8.2480001 -0.56 0.39215687
10.603001 8.2480001 -0.56 0.38039216
10.533 8.3080006 -0.63 0.41176471
10.593 8.3080006 -0.63999999 0.32156864
10.653 8.2580004 -0.56999999 0.36078432
10.643001 8.3080006 -0.63999999 0.38039216
10.563001 8.2779999 -0.47999999 0
10.533 8.3280001 -0.40000001 0
10.593 8.3179998 -0.40000001 0.090196081
10.633 8.2779999 -0.47999999 0
10.683001 8.2580004 -0.47999999 0.12156863
10.663 8.3179998 -0.40000001 0.090196081
10.813001 8.2580004 -0.89999998 0.51372552
10.743 8.2680006 -0.74000001 0.38039216
10.743 8.3080006 -0.80000001 0.39215687
10.803 8.2580004 -0.74000001 0.39215687
10.813001 8.3080006 -0.81 0.48235294
10.873 8.2880001 -0.98000002 0.29019609
10.903 8.2580004 -0.98000002 0.51372552
10.883 8.2580004 -0.89999998 0.27058825
10.883 8.3780003 -0.91000003 0.3019608
10.973001 8.2580004 -0.99000001 0.29019609
10.943 8.2580004 -0.89999998 0.28235295
10.873 8.2580004 -0.74000001 0.38039216
10.893001 8.3179998 -0.81 0.28235295
10.933001 8.2779999 -0.75 0.37254903
10.993 8.2680006 -0.75 0.40392157
10.933001 8.3179998 -0.81999999 0.44313726
11.003 8.3179998 -0.81999999 0.38039216
10.963 8.4180002 -0.99000001 0.40392157
10.953 8.5180006 -1 0.4627451
10.973001 8.4780006 -1 0.38039216
10.723001 8.2580004 -0.56999999 0.36078432
10.713 8.3179998 -0.63999999 0.38039216
10.843 8.2980003 -0.64999998 0.34117648
10.793 8.2580004 -0.56999999 0.36078432
10.773001 8.3080006 -0.63999999 0.36078432
10.763 8.2779999 -0.47999999 0.13333334
10.713 8.3080006 -0.41 0.090196081
10.813001 8.2779999 -0.49000001 0
10.793 8.3080006 -0.41 0.090196081
10.903 8.2980003 -0.64999998 0.27058825
10.853001 8.2480001 -0.56999999 0.38039216
10.913 8.2379999 -0.57999998 0.38039216
10.953 8.2779999 -0.64999998 0.18039216
11.003 8.2680006 -0.64999998 0.11372549
10.993 8.2480001 -0.57999998 0.38039216
10.883 8.2779999 -0.49000001 0.15294118
10.863 8.3080006 -0.41 0.11372549
10.923 8.3080006 -0.41 0.29019609
10.953 8.2779999 -0.49000001 0.14117648
10.973001 8.3179998 -0.41 0.17254902
10.383 8.368 -0.31999999 0.15294118
10.383 8.368 -0.15000001 0
10.423 8.3780003 -0.079999998 0
10.533 8.3780003 -0.31999999 0.29019609
10.563001 8.3480005 -0.31999999 0.26274511
10.623 8.3380003 -0.31999999 0.23137255
10.673 8.3579998 -0.31999999 0.17254902
10.533 8.4280005 -0.31999999 0.14117648
10.593 8.4580002 -0.079999998 0
10.383 8.3980007 0.1 0
10.423 8.408 0.1 0
10.393001 8.4180002 0.23999999 0
10.373 8.4580002 0.18000001 0
10.423 8.448 0.18000001 0
10.483 8.3980007 0.1 0
10.453 8.408 0.23999999 0
10.503 8.3980007 0.23999999 0
10.493 8.448 0.18000001 0
10.593 8.3780003 0.23999999 0
10.603001 8.4879999 0.0099999998 0
10.613 8.3880005 0.090000004 0
10.673 8.3880005 0.090000004 0
10.543 8.3880005 0.1 0
10.563001 8.448 0.18000001 0
10.573 8.3980007 0.23999999 0
10.623 8.4380007 0.18000001 0
10.683001 8.3980007 0.25 0
10.663 8.448 0.18000001 0
10.733 8.3480005 -0.31999999 0.11372549
10.813001 8.3579998 -0.33000001 0.21176471
10.873 8.3480005 -0.33000001 0.15294118
10.913 8.3280001 -0.33000001 0.11372549
10.993 8.3380003 -0.33000001 0.23137255
10.983 8.3380003 -0.23999999 0.15294118
10.983 8.3880005 -0.23999999 0.19215687
10.973001 8.3880005 -0.16 0.15294118
10.803 8.3780003 0.090000004 0
10.743 8.3880005 0.090000004 0
10.723001 8.4380007 0.18000001 0
10.743 8.3880005 0.25 0
10.803 8.3880005 0.25 0
10.793 8.448 0.18000001 0
10.863 8.3780003 0.090000004 0
10.903 8.3780003 0.090000004 0
10.983 8.368 0.0099999998 0.20392157
10.973001 8.3780003 0.090000004 0
10.863 8.3780003 0.25 0
10.933001 8.3780003 0.25 0
11.003 8.3780003 0.25 0
10.933001 8.3880005 0.0099999998 0.16078432
11.003 8.4980001 0.0099999998 0.40392157
10.863 8.448 0.18000001 0
10.913 8.4280005 0.18000001 0
10.993 8.4380007 0.18000001 0
8.5230007 8.6480007 -1.8099999 0.27058825
8.5030003 8.6780005 -1.8099999 0.23137255
8.5630007 8.5780001 -1.8099999 0.24313726
8.533 8.5980005 -1.8 0.19215687
8.5830002 8.5480003 -1.8 0.27058825
8.4829998 8.7180004 -1.8099999 0.18039216
8.4730005 8.7580004 -1.8200001 0.26274511
8.4730005 8.7779999 -1.8200001 0.20392157
8.4630003 8.8280001 -1.8200001 0.13333334
8.5430002 8.7480001 -1.46 0.26274511
8.9130001 8.6079998 -1.39 0.37254903
9.0430002 8.6780005 -1.41 0.37254903
9.7130003 9.0180006 -1.84 0.3019608
9.6430006 9.1280003 -1.84 0.3137255
9.6230001 9.1680002 -1.84 0.3137255
9.6730003 9.0480003 -1.84 0.32156864
9.6630001 9.0880003 -1.84 0.32156864
9.1030006 8.6780005 -1.42 0.24313726
9.6330004 8.6780005 -1.4 0.25098041
9.5930004 8.7180004 -1.4 0.37254903
9.6230001 8.7180004 -1.4 0.36078432
9.533 9.3380003 -1.85 0.3137255
9.5530005 9.3080006 -1.85 0.3137255
9.4829998 9.4780006 -1.86 0.3019608
9.5130005 9.3880005 -1.86 0.32156864
9.5030003 9.4380007 -1.86 0.32156864
9.5930004 9.198 -1.85 0.28235295
9.5930004 9.2280006 -1.85 0.33333334
9.573 9.2680006 -1.85 0.32156864
9.4429998 9.5780001 -1.87 0.3137255
9.4630003 9.5380001 -1.87 0.32156864
9.4829998 9.5080004 -1.87 0.3137255
9.4230003 9.6280003 -1.87 0.3019608
9.4230003 9.6780005 -1.88 0.34117648
8.493 8.5580006 0.029999999 0.14117648
8.5030003 8.5980005 0.029999999 0.15294118
8.5230007 8.6680002 0.029999999 0.28235295
8.5230007 8.7280006 0.029999999 0.19215687
8.533 8.7980003 0.029999999 0.23137255
8.533 8.8480005 0.029999999 0.11372549
8.5830002 8.948 0.029999999 0.16078432
8.5430002 9.0780001 -0.059999999 0
8.5930004 9.0279999 0.029999999 0.16078432
8.533 9.118 -0.059999999 0
8.5430002 9.1680002 -0.059999999 0
8.573 9.1380005 0.02 0.35294119
8.6330004 9.0880003 0.02 0.18039216
8.6430006 9.1680002 0.02 0.15294118
8.8030005 8.618 0.1 0
8.7930002 8.658 0.1 0
8.7730007 8.698 0.1 0
8.783 8.7680006 0.1 0
8.8330002 8.8380003 0.1 0
8.8430004 8.8980007 0.1 0
8.8930006 9.0080004 0.1 0
8.9130001 9.0880003 0.1 0
8.9230003 9.158 0.1 0
8.5630007 9.2080002 -0.2 0.090196081
8.5530005 9.3480005 -0.07 0.16078432
8.5430002 9.3880005 -0.07 0.14117648
8.5530005 9.4680004 -0.07 0.43137255
8.5530005 9.2280006 -0.059999999 0.11372549
8.5430002 9.2779999 -0.059999999 0.12156863
8.6929998 9.3280001 0.02 0.19215687
8.7030001 9.3980007 0.02 0.18039216
8.5530005 9.5279999 -0.07 0.23137255
8.5630007 9.5580006 -0.07 0.13333334
8.5630007 9.6280003 -0.07 0
8.4630003 9.8179998 -0.22 0.18039216
8.5630007 9.6780005 -0.07 0.070588239
8.5630007 9.8179998 -0.07 0
8.573 9.7580004 -0.07 0
8.743 9.5080004 0.02 0.10196079
8.7530003 9.5780001 0.02 0
8.9330006 9.2280006 0.1 0
8.9630003 9.3080006 0.1 0
8.993 9.368 0.1 0
9.0030003 9.448 0.1 0
8.783 9.6680002 0.02 0
9.0530005 9.5580006 0.1 0
9.0630007 9.6280003 0.1 0.090196081
9.3030005 8.5980005 -0.44 0.19215687
9.323 8.6680002 -0.44 0.20392157
9.3030005 8.7080002 -0.44 0.16078432
9.3030005 8.7680006 -0.44 0.15294118
9.3330002 8.5980005 -0.37 0.23137255
9.3430004 8.658 -0.37 0.26274511
9.3430004 8.6380005 -0.28999999 0.39215687
9.3430004 8.6880007 -0.28999999 0.3019608
9.3130007 8.5880003 -0.20999999 0.36078432
9.3130007 8.6380005 -0.20999999 0.27058825
9.3130007 8.698 -0.20999999 0.29019609
9.3629999 8.5880003 -0.13 0
9.3530006 8.7180004 -0.37 0.27058825
9.3530006 8.7779999 -0.37 0.28235295
9.3629999 8.7280006 -0.28999999 0.29019609
9.3530006 8.7779999 -0.30000001 0.3019608
9.3530006 8.8080006 -0.37 0.27058825
9.3030005 8.7480001 -0.20999999 0.24313726
9.1129999 8.5980005 0.18000001 0.090196081
9.1529999 8.5580006 0.18000001 0.15294118
9.1330004 8.5880003 0.18000001 0.10196079
9.1330004 8.6780005 0.18000001 0.082352944
9.1230001 8.7180004 0.18000001 0.16078432
9.1230001 8.7779999 0.18000001 0.3019608
9.1330004 8.8380003 0.18000001 0.11372549
9.1430006 8.908 0.18000001 0
9.1529999 8.9680004 0.18000001 0
9.2130003 9.0480003 0.18000001 0
9.2130003 9.1079998 0.18000001 0
9.4130001 8.5880003 -0.28999999 0.39215687
9.5030003 8.5480003 0.23999999 0
9.5430002 8.6380005 0.23999999 0
9.573 8.7180004 0.23999999 0
9.6129999 8.8080006 0.23999999 0
9.4429998 8.9879999 -0.22 0.57254905
9.493 9.0279999 -0.31 0.68235296
9.493 9.0880003 -0.31 0.37254903
9.493 9.1380005 -0.31 0.4509804
9.4429998 9.0480003 -0.22 0.39215687
9.4330006 9.0880003 -0.22 0.41176471
9.4530001 9.1380005 -0.22 0.41176471
9.6430006 8.8880005 0.23999999 0
9.6529999 8.9580002 0.23999999 0
9.2730007 9.448 -0.38999999 0
9.2730007 9.4980001 -0.38999999 0.13333334
9.323 9.4280005 -0.38999999 0.15294118
9.283 9.5480003 -0.38999999 0
9.3430004 9.7880001 -0.40000001 0.36078432
9.4829998 9.198 -0.47 0.39215687
9.4829998 9.2080002 -0.38999999 0.50196081
9.4829998 9.3179998 -0.47 0.42352942
9.4829998 9.3280001 -0.38999999 0.60392159
9.493 9.2580004 -0.47 0.34117648
9.493 9.2779999 -0.38999999 0.25098041
9.4829998 9.368 -0.47 0.43137255
9.4829998 9.4180002 -0.40000001 0.68235296
9.5430002 9.5180006 -0.47999999 0.62352943
9.283 9.4580002 -0.31 0.28235295
9.2630005 9.4879999 -0.31 0.41176471
9.3330002 9.448 -0.31 0.26274511
9.2329998 9.198 0.18000001 0.13333334
9.243 9.2580004 0.18000001 0.11372549
9.243 9.658 -0.31999999 0.20392157
9.1230001 9.6280003 -0.079999998 0
9.1230001 9.8179998 -0.15000001 0
9.1330004 9.7779999 -0.15000001 0
9.2630005 9.5580006 -0.31999999 0.3137255
9.2630005 9.618 -0.31999999 0.27058825
9.493 9.198 -0.31 0.41176471
9.5130005 9.2480001 -0.31 0.41176471
9.5030003 9.2880001 -0.31 0.41176471
9.4429998 9.2480001 -0.22 0.56078434
9.4630003 9.2080002 -0.22 0.34117648
9.4829998 9.448 -0.31999999 0.3019608
9.5130005 9.3579998 -0.31999999 0.27058825
9.533 9.448 -0.23 0.7019608
9.4630003 9.5279999 -0.23 0.33333334
9.4630003 9.5880003 -0.23 0.38039216
9.4530001 9.6380005 -0.23 0.43137255
9.4630003 9.7080002 -0.23999999 0.35294119
9.4530001 9.7580004 -0.23999999 0.42352942
9.6129999 9.5180006 -0.31999999 0.72156864
8.4829998 9.8980007 -0.38 0.10196079
8.4829998 9.9580002 -0.31 0.37254903
8.5130005 9.9380007 -0.31 0.33333334
8.4730005 9.8980007 -0.22 0.14117648
8.5830002 9.8880005 -0.079999998 0.13333334
8.5830002 9.908 -0.14 0
