ply
format ascii 1.0
comment PCL generated
element vertex 1279
property float x
property float y
property float z
property float intensity
element camera 0
property float view_px
property float view_py
property float view_pz
property float x_axisx
property float x_axisy
property float x_axisz
property float y_axisx
property float y_axisy
property float y_axisz
property float z_axisx
property float z_axisy
property float z_axisz
property float focal
property float scalex
property float scaley
property float centerx
property float centery
property int viewportx
property int viewporty
property float k1
property float k2
end_header
8.2309999 8.224 -0.90499997 0.26274511
8.1540003 8.3010006 -0.82800001 0.40392157
8.1540003 8.3010006 -0.82800001 0.44313726
8.2309999 8.3010006 -0.82800001 0.38039216
8.1540003 8.3010006 -0.75099999 0.36078432
8.1540003 8.3010006 -0.67400002 0.43137255
8.1540003 8.3010006 -0.67400002 0.35294119
8.1540003 8.3780003 -0.67400002 0.3019608
8.1540003 8.3780003 -0.67400002 0.47058824
8.2309999 8.3010006 -0.75099999 0.20392157
8.2309999 8.3010006 -0.75099999 0.27058825
8.2309999 8.3010006 -0.67400002 0.38039216
8.2309999 8.3780003 -0.67400002 0.51372552
8.1540003 8.224 -0.44299999 0
8.1540003 8.3010006 -0.51999998 0.36078432
8.1540003 8.3780003 -0.597 0.36078432
8.1540003 8.3780003 -0.597 0.39215687
8.2309999 8.3010006 -0.51999998 0.35294119
8.2309999 8.3010006 -0.51999998 0.24313726
8.2309999 8.3780003 -0.597 0.37254903
8.2309999 8.3780003 -0.597 0.42352942
8.2309999 8.3780003 -0.51999998 0.20392157
8.2309999 8.3010006 -0.366 0.18039216
8.3080006 8.224 -0.90499997 0.25098041
8.3850002 8.224 -0.90499997 0.17254902
8.3850002 8.224 -0.75099999 0
8.3850002 8.224 -0.75099999 0
8.3080006 8.3010006 -0.82800001 0.38039216
8.3080006 8.3010006 -0.82800001 0.38039216
8.3850002 8.3010006 -0.82800001 0.39215687
8.3080006 8.3010006 -0.75099999 0.13333334
8.3080006 8.3010006 -0.75099999 0.26274511
8.3080006 8.3010006 -0.67400002 0.36078432
8.3080006 8.3010006 -0.67400002 0.38039216
8.3080006 8.3010006 -0.67400002 0.50196081
8.3080006 8.3780003 -0.67400002 0.34117648
8.3850002 8.3010006 -0.75099999 0.4627451
8.3850002 8.3010006 -0.67400002 0.4509804
8.3850002 8.3010006 -0.67400002 0.35294119
8.4619999 8.224 -0.90499997 0.29019609
8.4619999 8.224 -0.90499997 0.29019609
8.4619999 8.224 -0.82800001 0
8.5390005 8.224 -0.90499997 0.29019609
8.5390005 8.224 -0.90499997 0.27058825
8.5390005 8.224 -0.82800001 0
8.5390005 8.224 -0.82800001 0
8.4619999 8.3010006 -0.82800001 0.40392157
8.4619999 8.3010006 -0.82800001 0.39215687
8.5390005 8.3010006 -0.90499997 0.44313726
8.5390005 8.3010006 -0.82800001 0.41176471
8.4619999 8.3010006 -0.75099999 0.48235294
8.4619999 8.3010006 -0.67400002 0.40392157
8.4619999 8.3010006 -0.67400002 0.35294119
8.4619999 8.3780003 -0.75099999 0.32156864
8.5390005 8.3010006 -0.67400002 0.38039216
8.5390005 8.3010006 -0.67400002 0.35294119
8.5390005 8.3780003 -0.75099999 0.28235295
8.3080006 8.3010006 -0.51999998 0.34117648
8.3080006 8.3010006 -0.51999998 0.52156866
8.3080006 8.3780003 -0.597 0.38039216
8.3850002 8.3010006 -0.597 0.082352944
8.3850002 8.3010006 -0.597 0.12156863
8.3850002 8.3010006 -0.51999998 0.29019609
8.3850002 8.3780003 -0.597 0.16078432
8.3080006 8.3010006 -0.44299999 0.26274511
8.3080006 8.3010006 -0.366 0.29019609
8.4619999 8.224 -0.597 0
8.5390005 8.224 -0.51999998 0.18039216
8.4619999 8.3010006 -0.597 0
8.4619999 8.3010006 -0.51999998 0.21176471
8.5390005 8.3010006 -0.51999998 0.15294118
8.5390005 8.3010006 -0.51999998 0.25098041
8.3080006 8.3010006 -0.289 0.56078434
8.3080006 8.3780003 -0.212 0.21176471
8.3850002 8.3780003 -0.212 0.36078432
8.3850002 8.3010006 -0.13500001 0.18039216
8.4619999 8.3780003 -0.057999998 0.12156863
8.5390005 8.3780003 -0.057999998 0
8.4619999 8.3780003 0.018999999 0.12156863
8.4619999 8.3780003 0.018999999 0.21176471
8.5390005 8.3780003 0.018999999 0
7.3070002 8.9169998 -1.906 0.24313726
7.3070002 8.9940004 -1.906 0.18039216
7.3070002 8.9940004 -1.906 0.27058825
6.9990001 8.6090002 -1.444 0
6.9990001 8.6859999 -1.367 0
6.9990001 8.6859999 -1.367 0
6.9990001 8.4549999 -1.136 0.13333334
6.9990001 8.4549999 -1.136 0.49019608
6.9990001 8.5320005 -1.136 0.22352941
6.9990001 8.5320005 -1.136 0.23137255
6.9990001 8.6090002 -1.136 0.14117648
6.9990001 8.6090002 -1.136 0.56078434
6.9990001 8.6859999 -1.136 0.3019608
6.9990001 8.6859999 -1.136 0.21176471
6.9220004 8.6859999 -0.98199999 0.3019608
6.9220004 8.6859999 -0.98199999 0.99215686
6.9220004 8.6859999 -0.98199999 0.89019608
6.9990001 8.6090002 -0.98199999 0.29019609
6.9990001 8.6090002 -0.98199999 0.4509804
6.9990001 8.6859999 -1.059 0.29019609
6.9990001 8.6859999 -1.059 0.32156864
6.9990001 8.7630005 -1.367 0
6.9990001 8.7630005 -1.367 0
6.9990001 8.8400002 -1.367 0
6.9990001 8.9169998 -1.367 0
6.9990001 8.9940004 -1.367 0
6.9990001 8.9940004 -1.29 0
6.9990001 8.7630005 -1.136 0.41176471
6.9990001 8.8400002 -1.136 0.3137255
6.9220004 8.8400002 -0.98199999 0.90196079
6.9220004 8.8400002 -0.98199999 0.90196079
6.9990001 8.7630005 -1.059 0.39215687
6.9990001 8.8400002 -1.059 0.28235295
6.9990001 8.9169998 -1.2130001 0.32156864
6.9990001 8.9169998 -1.136 0.28235295
6.9990001 8.9940004 -1.2130001 0.3019608
6.9220004 8.9169998 -1.059 0.94117647
6.9220004 8.9169998 -1.059 0.94117647
6.9990001 8.9169998 -0.98199999 0.88235295
6.9990001 8.9169998 -0.98199999 0.89019608
6.9990001 8.9940004 -0.98199999 0.88235295
6.9990001 8.9940004 -0.98199999 0.90196079
7.0760002 8.4549999 -1.29 0
7.0760002 8.5320005 -1.367 0
7.0760002 8.5320005 -1.367 0
7.1530004 8.5320005 -1.367 0
7.0760002 8.6859999 -1.444 0.12156863
7.1530004 8.6859999 -1.521 0.38039216
7.1530004 8.6859999 -1.444 0.23137255
7.0760002 8.6090002 -1.367 0
7.0760002 8.6859999 -1.367 0
7.0760002 8.6859999 -1.367 0
7.2300005 8.5320005 -1.367 0
7.3070002 8.4549999 -1.367 0.18039216
7.2300005 8.6090002 -1.444 0.18039216
7.2300005 8.6859999 -1.444 0.20392157
7.3070002 8.6090002 -1.444 0.19215687
7.3070002 8.6090002 -1.367 0
7.1530004 8.4549999 -1.2130001 0.17254902
7.1530004 8.4549999 -1.2130001 0.21176471
7.1530004 8.5320005 -1.2130001 0.33333334
7.1530004 8.5320005 -1.2130001 0.22352941
7.0760002 8.4549999 -1.059 0.15294118
7.0760002 8.5320005 -1.059 0.16078432
7.0760002 8.5320005 -1.059 0.44313726
7.0760002 8.6859999 -1.2130001 0.32156864
7.0760002 8.6859999 -1.2130001 0.4627451
7.0760002 8.6859999 -1.2130001 0.38039216
7.1530004 8.6090002 -1.2130001 0.20392157
7.1530004 8.6859999 -1.2130001 0.16078432
7.0760002 8.6090002 -1.059 0.24313726
7.0760002 8.6090002 -1.059 0.19215687
7.1530004 8.6859999 -0.98199999 0
7.0760002 8.7630005 -1.444 0.16078432
7.0760002 8.8400002 -1.444 0.20392157
7.0760002 8.8400002 -1.444 0.42352942
7.1530004 8.7630005 -1.521 0.41176471
7.1530004 8.7630005 -1.521 0.20392157
7.1530004 8.7630005 -1.444 0.14117648
7.1530004 8.8400002 -1.521 0.24313726
7.0760002 8.9169998 -1.444 0.15294118
7.0760002 8.9940004 -1.444 0.41176471
7.1530004 8.9169998 -1.521 0.48235294
7.1530004 8.9940004 -1.521 0.29019609
7.1530004 8.9940004 -1.521 0.42352942
7.0760002 8.9940004 -1.29 0.35294119
7.3070002 8.7630005 -1.521 0.28235295
7.3070002 8.7630005 -1.521 0.23137255
7.3070002 8.7630005 -1.521 0.29019609
7.3070002 8.7630005 -1.444 0.36078432
7.0760002 8.7630005 -1.2130001 0.37254903
7.0760002 8.8400002 -1.2130001 0.35294119
7.0760002 8.8400002 -1.136 0.29019609
7.0760002 8.9169998 -1.2130001 0.40392157
7.0760002 8.9169998 -1.136 0.29019609
7.0760002 8.9940004 -1.2130001 0.38039216
7.0760002 8.9940004 -1.136 0.25098041
6.9990001 9.302 -1.906 0.19215687
6.9990001 9.302 -1.906 0.26274511
6.9990001 9.302 -1.906 0.23137255
6.9220004 9.3790007 -1.906 0.26274511
6.9990001 9.3790007 -1.906 0.18039216
7.1530004 9.1480007 -1.906 0.27058825
7.1530004 9.1480007 -1.906 0.24313726
7.0760002 9.2250004 -1.906 0.18039216
7.0760002 9.2250004 -1.906 0.27058825
7.0760002 9.2250004 -1.906 0.24313726
7.2300005 9.0710001 -1.906 0.15294118
7.2300005 9.0710001 -1.906 0.29019609
7.2300005 9.1480007 -1.906 0.23137255
7.2300005 9.1480007 -1.906 0.18039216
7.3070002 9.0710001 -1.906 0.23137255
7.2300005 9.2250004 -1.598 0.28235295
7.2300005 9.302 -1.598 0.26274511
7.3070002 9.6100006 -1.675 0.5529412
6.9220004 9.1480007 -1.29 0.13333334
6.9990001 9.0710001 -1.367 0
6.9990001 9.0710001 -1.29 0
6.9990001 9.1480007 -1.367 0
6.9990001 9.1480007 -1.367 0.16078432
6.9990001 9.1480007 -1.29 0
6.9990001 9.1480007 -1.29 0
6.9990001 9.302 -1.444 0.33333334
6.9990001 9.0710001 -1.2130001 0.3019608
6.9990001 9.0710001 -1.136 0.20392157
6.9990001 9.0710001 -1.136 0.4509804
6.9990001 9.1480007 -1.2130001 0.29019609
6.9990001 9.1480007 -1.2130001 0.3019608
6.9220004 9.0710001 -1.059 0.95294118
6.9220004 9.0710001 -1.059 0.95294118
6.9990001 9.0710001 -1.059 0.9137255
6.9990001 9.1480007 -0.98199999 0.88235295
6.9990001 9.1480007 -0.98199999 0.92156863
6.9990001 9.2250004 -1.2130001 0.3137255
6.9990001 9.302 -1.2130001 0.3137255
6.9990001 9.302 -1.059 0.3019608
6.9990001 9.302 -0.98199999 0.27058825
6.9990001 9.302 -0.98199999 0.29019609
6.9990001 9.4560003 -1.444 0.18039216
6.9220004 9.4560003 -1.367 0
6.9990001 9.6100006 -1.29 0
6.9990001 9.6100006 -1.29 0
6.9990001 9.3790007 -1.2130001 0.28235295
6.9990001 9.3790007 -1.2130001 0.3137255
6.9990001 9.4560003 -1.2130001 0.19215687
6.9990001 9.3790007 -1.059 0.23137255
6.9990001 9.3790007 -1.059 0.48235294
6.9990001 9.3790007 -0.98199999 0.38039216
6.9990001 9.4560003 -1.059 0.36078432
6.9990001 9.4560003 -0.98199999 0.43137255
6.9990001 9.533 -1.059 0.50196081
6.9990001 9.533 -0.98199999 0.27058825
7.0760002 9.0710001 -1.444 0.17254902
7.0760002 9.0710001 -1.444 0.38039216
7.0760002 9.1480007 -1.521 0.14117648
7.1530004 9.0710001 -1.521 0.28235295
7.1530004 9.1480007 -1.521 0.34117648
7.0760002 9.0710001 -1.29 0.33333334
7.0760002 9.0710001 -1.29 0.3019608
7.0760002 9.1480007 -1.29 0.40392157
7.0760002 9.2250004 -1.521 0.33333334
7.0760002 9.302 -1.521 0.20392157
7.0760002 9.302 -1.444 0.20392157
7.0760002 9.2250004 -1.29 0.32156864
7.0760002 9.1480007 -1.136 0.3137255
7.0760002 9.2250004 -1.136 0.18039216
7.0760002 9.302 -1.136 0.42352942
7.0760002 9.3790007 -1.521 0.27058825
7.0760002 9.3790007 -1.521 0
7.0760002 9.3790007 -1.444 0.21176471
7.0760002 9.4560003 -1.444 0.21176471
7.1530004 9.3790007 -1.521 0.23137255
7.0760002 9.3790007 -1.29 0.4627451
7.0760002 9.3790007 -1.29 0.25098041
7.0760002 9.4560003 -1.29 0.36078432
7.0760002 9.4560003 -1.29 0.38039216
7.0760002 9.533 -1.29 0
7.0760002 9.3790007 -1.136 0.17254902
7.0760002 9.4560003 -1.136 0.27058825
7.0760002 9.4560003 -1.136 0.35294119
7.0760002 9.3790007 -0.98199999 0.74117649
7.0760002 9.533 -1.136 0.37254903
7.0760002 9.6100006 -1.2130001 0.51372552
7.0760002 9.6100006 -1.136 0.32156864
6.9990001 8.4549999 -0.90499997 0.24313726
6.9990001 8.4549999 -0.90499997 0.21176471
6.9990001 8.4549999 -0.82800001 0
6.9990001 8.4549999 -0.82800001 0
6.9990001 8.5320005 -0.90499997 0.18039216
6.9990001 8.5320005 -0.82800001 0.13333334
6.9990001 8.6090002 -0.90499997 0.21176471
6.9990001 8.6090002 -0.90499997 0.26274511
6.9990001 8.6090002 -0.82800001 0.11372549
6.9990001 8.6090002 -0.82800001 0.38039216
6.9990001 8.6090002 -0.82800001 0.18039216
6.9990001 8.6859999 -0.90499997 0.27058825
6.9990001 8.6859999 -0.90499997 0.23137255
6.9990001 8.6859999 -0.90499997 0.44313726
6.9990001 8.6859999 -0.82800001 0.3019608
6.9990001 8.6859999 -0.82800001 0.36078432
6.9220004 8.7630005 -0.90499997 0.87058824
6.9220004 8.7630005 -0.90499997 0.8509804
6.9990001 8.7630005 -0.90499997 0
6.9990001 8.7630005 -0.82800001 0.35294119
6.9990001 8.7630005 -0.82800001 0.32156864
6.9990001 8.8400002 -0.90499997 0
6.9990001 8.8400002 -0.82800001 0.29019609
6.9990001 8.9169998 -0.90499997 0.11372549
6.9990001 8.9169998 -0.82800001 0.33333334
6.9990001 8.9940004 -0.90499997 0.18039216
6.9990001 8.9940004 -0.82800001 0.36078432
6.9990001 8.9940004 -0.82800001 0.36078432
7.0760002 8.4549999 -0.82800001 0.3019608
7.0760002 8.5320005 -0.82800001 0.29019609
7.0760002 8.4549999 -0.75099999 0.3019608
7.1530004 8.4549999 -0.75099999 0.21176471
7.1530004 8.4549999 -0.75099999 0.20392157
7.0760002 8.6090002 -0.82800001 0.20392157
7.0760002 8.6859999 -0.82800001 0.35294119
7.0760002 8.6859999 -0.75099999 0.27058825
7.0760002 8.6859999 -0.75099999 0
7.1530004 8.6090002 -0.75099999 0.3019608
7.1530004 8.6090002 -0.75099999 0.32156864
7.1530004 8.6859999 -0.75099999 0.3019608
7.2300005 8.4549999 -0.75099999 0.23137255
7.2300005 8.6090002 -0.75099999 0.32156864
7.0760002 8.7630005 -0.75099999 0
7.0760002 8.7630005 -0.75099999 0.12156863
7.0760002 8.8400002 -0.75099999 0.15294118
7.0760002 8.8400002 -0.75099999 0.34117648
7.0760002 8.9940004 -0.90499997 0.090196081
7.0760002 8.9169998 -0.75099999 0.19215687
7.0760002 8.9940004 -0.75099999 0.18039216
7.0760002 8.9940004 -0.75099999 0.22352941
7.3070002 8.9169998 -0.67400002 0.4627451
7.3070002 8.9940004 -0.67400002 0.25098041
6.9990001 9.0710001 -0.90499997 0
6.9990001 9.0710001 -0.82800001 0.36078432
6.9990001 9.1480007 -0.82800001 0.36078432
6.9990001 9.1480007 -0.82800001 0.36078432
6.9990001 9.2250004 -0.90499997 0.070588239
6.9990001 9.2250004 -0.82800001 0.35294119
6.9990001 9.302 -0.82800001 0.33333334
6.9990001 9.3790007 -0.90499997 0.18039216
6.9990001 9.3790007 -0.90499997 0.36078432
6.9990001 9.3790007 -0.82800001 0.33333334
6.9990001 9.4560003 -0.90499997 0.21176471
6.9990001 9.4560003 -0.90499997 0.32156864
6.9990001 9.4560003 -0.82800001 0.36078432
6.9990001 9.4560003 -0.82800001 0.33333334
6.9990001 9.533 -0.82800001 0.48235294
7.0760002 9.0710001 -0.90499997 0.20392157
7.0760002 9.0710001 -0.75099999 0.18039216
7.0760002 9.1480007 -0.75099999 0.3137255
7.0760002 9.302 -0.90499997 0.15294118
7.0760002 9.2250004 -0.75099999 0.19215687
7.0760002 9.302 -0.75099999 0.17254902
7.0760002 9.302 -0.75099999 0.16078432
7.0760002 9.3790007 -0.90499997 0.3019608
7.0760002 9.4560003 -0.75099999 0.21176471
7.0760002 9.6100006 -0.90499997 0.14117648
7.3070002 9.7639999 -1.752 0.35294119
7.3070002 9.7639999 -1.752 0.16078432
7.2300005 9.6870003 -1.598 0
7.2300005 9.7639999 -1.598 0.10196079
7.3070002 9.6870003 -1.675 0.18039216
7.3070002 9.6870003 -1.598 0.43137255
7.3070002 9.6870003 -1.598 0.3019608
7.3070002 9.7639999 -1.598 0
7.3070002 9.8410006 -1.598 0.13333334
6.9990001 9.6870003 -1.29 0
6.9990001 9.7639999 -1.29 0
6.9990001 9.6870003 -0.98199999 0.16078432
6.9990001 9.7639999 -1.059 0.18039216
7.0760002 9.6870003 -1.29 0.21176471
7.2300005 9.6870003 -1.367 0
7.0760002 9.7639999 -1.2130001 0.32156864
7.1530004 9.7639999 -1.2130001 0.23137255
7.0760002 9.6870003 -0.98199999 0.39215687
7.0760002 9.8410006 -0.98199999 0.12156863
7.1530004 9.7639999 -0.90499997 0.26274511
7.4610004 8.6859999 -1.829 0.23137255
7.4610004 8.6859999 -1.829 0.18039216
7.5380001 8.5320005 -1.829 0.23137255
7.5380001 8.6090002 -1.829 0.23137255
7.5380001 8.6090002 -1.829 0.19215687
7.5380001 8.6859999 -1.829 0.27058825
7.3840003 8.8400002 -1.906 0.26274511
7.3840003 8.8400002 -1.906 0.23137255
7.3840003 8.9169998 -1.906 0.18039216
7.3840003 8.9169998 -1.906 0.27058825
7.4610004 8.7630005 -1.829 0.26274511
7.4610004 8.7630005 -1.829 0.23137255
7.4610004 8.8400002 -1.829 0.18039216
7.3840003 8.6090002 -1.444 0.23137255
7.3840003 8.6859999 -1.444 0.15294118
7.3840003 8.6090002 -1.367 0.14117648
7.3840003 8.4549999 -1.2130001 0.13333334
7.3840003 8.4549999 -1.136 0
7.3840003 8.4549999 -1.059 0
7.4610004 8.4549999 -0.98199999 0.43137255
7.5380001 8.4549999 -1.136 0.12156863
7.5380001 8.6090002 -1.2130001 0.53333336
7.5380001 8.6090002 -1.136 0
7.6150002 8.6090002 -1.136 0.24313726
7.6150002 8.6090002 -1.136 0.21176471
7.5380001 8.6090002 -1.059 0.41176471
7.6150002 8.6090002 -1.059 0.3019608
7.6150002 8.6090002 -1.059 0.26274511
7.6150002 8.6090002 -0.98199999 0.20392157
7.6920004 8.6090002 -1.059 0.3137255
7.6920004 8.6090002 -0.98199999 0.3137255
7.7690001 8.6090002 -1.059 0.48235294
7.7690001 8.6859999 -0.98199999 0.29019609
7.9230003 8.4549999 -0.98199999 0.43137255
7.9230003 8.4549999 -0.98199999 0.43137255
7.9230003 8.5320005 -0.98199999 0.38039216
7.8460002 8.6859999 -1.059 0.3019608
7.8460002 8.6859999 -0.98199999 0.19215687
7.9230003 8.6090002 -1.059 0.26274511
7.9230003 8.6090002 -1.059 0.36078432
7.9230003 8.6090002 -1.059 0.38039216
7.9230003 8.6090002 -0.98199999 0.26274511
7.9230003 8.6090002 -0.98199999 0.15294118
7.9230003 8.6859999 -1.059 0.22352941
7.9230003 8.6859999 -0.98199999 0.43137255
7.9230003 9.533 -1.906 0.23137255
7.9230003 9.6100006 -1.906 0.17254902
8.2309999 8.6859999 -1.829 0.15294118
8.5390005 8.4549999 -1.829 0.23137255
8.5390005 8.4549999 -1.829 0.19215687
8.5390005 8.5320005 -1.829 0.27058825
8.5390005 8.5320005 -1.829 0.24313726
8.5390005 8.5320005 -1.829 0.19215687
8.4619999 8.6090002 -1.829 0.27058825
8.4619999 8.6090002 -1.829 0.23137255
8.4619999 8.6859999 -1.829 0.18039216
8.4619999 8.6859999 -1.829 0.26274511
8.4619999 8.7630005 -1.829 0.20392157
8.4619999 8.7630005 -1.829 0.13333334
8.2309999 8.5320005 -1.444 0.25098041
8.1540003 8.4549999 -1.29 0.3019608
8.2309999 8.4549999 -1.367 0.50196081
8.0770006 8.4549999 -1.136 0.32156864
8.0770006 8.5320005 -1.136 0.35294119
8.0770006 8.5320005 -1.136 0.41176471
8 8.4549999 -1.059 0.50196081
8 8.4549999 -1.059 0.3137255
8 8.5320005 -1.059 0.5411765
8.1540003 8.4549999 -1.2130001 0.37254903
8.1540003 8.4549999 -1.2130001 0.34117648
8.1540003 8.6090002 -1.136 0.3019608
8.3850002 8.5320005 -1.367 0.32156864
8.5390005 8.6859999 -1.521 0.26274511
8.0770006 9.302 -1.906 0.12156863
8 9.3790007 -1.906 0.23137255
8 9.3790007 -1.906 0.18039216
8 9.4560003 -1.906 0.27058825
8 9.4560003 -1.906 0.19215687
8.0770006 9.3790007 -1.906 0.27058825
8 9.533 -1.906 0.25098041
7.3840003 8.4549999 -0.75099999 0.18039216
7.3840003 8.5320005 -0.75099999 0.19215687
7.3840003 8.5320005 -0.75099999 0.22352941
7.3840003 8.5320005 -0.75099999 0.36078432
7.4610004 8.6090002 -0.67400002 0.40392157
7.4610004 8.6090002 -0.67400002 0.42352942
7.4610004 8.6859999 -0.67400002 0.48235294
7.4610004 8.6859999 -0.67400002 0.27058825
7.6150002 8.5320005 -0.67400002 0.4627451
7.6150002 8.5320005 -0.67400002 0.44313726
7.6150002 8.5320005 -0.67400002 0.36078432
7.5380001 8.6090002 -0.67400002 0.43137255
7.5380001 8.6090002 -0.67400002 0.34117648
7.6150002 8.4549999 -0.597 0.35294119
7.6150002 8.5320005 -0.597 0.18039216
7.3840003 8.8400002 -0.67400002 0.33333334
7.4610004 8.7630005 -0.67400002 0.21176471
7.4610004 8.8400002 -0.67400002 0.20392157
7.4610004 8.8400002 -0.67400002 0.26274511
7.3840003 8.9169998 -0.67400002 0.49019608
7.3840003 8.9940004 -0.67400002 0.18039216
7.6150002 8.7630005 -0.67400002 0.38039216
7.6150002 8.7630005 -0.67400002 0.35294119
7.6150002 8.7630005 -0.67400002 0.41176471
7.6150002 8.8400002 -0.67400002 0.19215687
7.6150002 8.9169998 -0.67400002 0.18039216
7.6150002 8.9940004 -0.67400002 0.3019608
7.6920004 8.5320005 -0.67400002 0.41176471
7.6920004 8.5320005 -0.67400002 0.41176471
7.7690001 8.5320005 -0.67400002 0.39215687
7.7690001 8.5320005 -0.67400002 0.36078432
7.6920004 8.6859999 -0.67400002 0.19215687
7.6920004 8.6859999 -0.67400002 0.21176471
7.8460002 8.4549999 -0.67400002 0.28235295
7.6920004 8.4549999 -0.597 0.38039216
7.6920004 8.5320005 -0.597 0.32156864
7.7690001 8.4549999 -0.597 0.36078432
7.7690001 8.4549999 -0.597 0.35294119
7.7690001 8.4549999 -0.597 0.33333334
7.6920004 8.6090002 -0.597 0.3137255
7.3840003 9.0710001 -0.67400002 0.41176471
7.3840003 9.1480007 -0.67400002 0.23137255
7.3840003 9.2250004 -0.67400002 0.23137255
7.3840003 9.302 -0.75099999 0.18039216
7.3840003 9.3790007 -0.75099999 0.4509804
7.3840003 9.4560003 -0.75099999 0.25098041
7.4610004 9.6100006 -0.75099999 0.17254902
7.6920004 9.0710001 -0.67400002 0.20392157
7.6920004 9.1480007 -0.67400002 0.18039216
7.6920004 9.2250004 -0.67400002 0.3137255
7.6920004 9.302 -0.67400002 0.20392157
7.6920004 9.302 -0.67400002 0.18039216
7.6920004 9.3790007 -0.67400002 0.13333334
7.7690001 9.533 -0.67400002 0.18039216
7.7690001 9.6100006 -0.67400002 0.12156863
8.0770006 8.4549999 -0.597 0.48235294
8.1540003 8.4549999 -0.597 0.27058825
8.1540003 8.5320005 -0.597 0.20392157
8.2309999 8.4549999 -0.51999998 0.17254902
8.2309999 8.5320005 -0.51999998 0.39215687
8.2309999 8.5320005 -0.51999998 0.25098041
8.1540003 8.6090002 -0.597 0.13333334
8.1540003 8.6090002 -0.597 0.50196081
8.1540003 8.6859999 -0.597 0.23137255
8.2309999 8.6090002 -0.51999998 0.25098041
8.2309999 8.6859999 -0.51999998 0.21176471
8.1540003 8.7630005 -0.597 0.18039216
8.1540003 8.7630005 -0.597 0.39215687
8.1540003 8.8400002 -0.597 0.24313726
8.2309999 8.7630005 -0.51999998 0.3019608
8.2309999 8.8400002 -0.51999998 0.43137255
8.1540003 8.9169998 -0.597 0.28235295
8.1540003 8.9169998 -0.597 0.26274511
8.1540003 8.9940004 -0.597 0.27058825
8.2309999 8.9169998 -0.51999998 0.25098041
8.2309999 8.9169998 -0.51999998 0.25098041
8.2309999 8.9940004 -0.51999998 0.28235295
8.3080006 8.4549999 -0.44299999 0
8.3080006 8.5320005 -0.44299999 0
8.3080006 8.5320005 -0.44299999 0
8.3080006 8.6090002 -0.44299999 0
8.3080006 8.6090002 -0.44299999 0
8.3080006 8.6859999 -0.44299999 0
8.3080006 8.7630005 -0.44299999 0
8.3080006 8.8400002 -0.44299999 0.10196079
8.3080006 8.9169998 -0.44299999 0
8.3080006 8.9940004 -0.44299999 0
8.3850002 8.4549999 -0.289 0.17254902
8.3850002 8.4549999 -0.13500001 0.14117648
8.4619999 8.4549999 0.018999999 0.19215687
8.4619999 8.4549999 0.018999999 0.20392157
8.4619999 8.5320005 0.018999999 0.14117648
8.4619999 8.5320005 0.018999999 0.15294118
8.4619999 8.6090002 0.018999999 0.28235295
8.4619999 8.6859999 0.018999999 0.19215687
8.4619999 8.7630005 0.018999999 0.23137255
8.4619999 8.8400002 0.018999999 0.11372549
8.5390005 8.9169998 0.018999999 0.16078432
8.5390005 8.9940004 0.018999999 0.16078432
8.1540003 9.0710001 -0.597 0.29019609
8.1540003 9.1480007 -0.597 0.28235295
8.2309999 9.0710001 -0.51999998 0.3019608
8.2309999 9.1480007 -0.51999998 0.3019608
8.2309999 9.1480007 -0.51999998 0.27058825
8.2309999 9.2250004 -0.597 0.33333334
8.2309999 9.2250004 -0.51999998 0.28235295
8.2309999 9.302 -0.597 0.24313726
8.2309999 9.302 -0.51999998 0.24313726
8.2309999 9.3790007 -0.597 0.34117648
8.2309999 9.3790007 -0.51999998 0.18039216
8.2309999 9.4560003 -0.597 0.3137255
8.2309999 9.4560003 -0.597 0.35294119
8.2309999 9.4560003 -0.51999998 0.27058825
8.2309999 9.533 -0.597 0.33333334
8.2309999 9.6100006 -0.597 0.36078432
8.3080006 9.0710001 -0.44299999 0
8.3080006 9.0710001 -0.44299999 0
8.3080006 9.1480007 -0.44299999 0
8.3080006 9.2250004 -0.44299999 0
8.3080006 9.3790007 -0.51999998 0.26274511
8.3080006 9.533 -0.51999998 0.26274511
8.3080006 9.6100006 -0.51999998 0.21176471
8.3080006 9.6100006 -0.51999998 0.41176471
8.5390005 9.1480007 -0.212 0.090196081
8.4619999 9.0710001 -0.057999998 0
8.5390005 9.0710001 -0.057999998 0
8.5390005 9.1480007 -0.057999998 0
8.5390005 9.2250004 -0.13500001 0.11372549
8.5390005 9.2250004 -0.13500001 0.12156863
8.5390005 9.302 -0.13500001 0.16078432
8.5390005 9.0710001 0.018999999 0.35294119
8.5390005 9.3790007 -0.13500001 0.14117648
8.5390005 9.4560003 -0.13500001 0.43137255
8.5390005 9.533 -0.13500001 0.23137255
8.5390005 9.533 -0.13500001 0.13333334
8.5390005 9.6100006 -0.13500001 0
7.5380001 9.6870003 -1.906 0.21176471
7.6150002 9.6870003 -1.906 0.28235295
7.6150002 9.6870003 -1.906 0.29019609
7.3840003 9.6870003 -1.752 0.25098041
7.4610004 9.6870003 -1.829 0.19215687
7.4610004 9.6870003 -1.829 0.050980393
7.4610004 9.6870003 -1.752 0.23137255
7.4610004 9.7639999 -1.829 0.043137256
7.3840003 9.6870003 -1.598 0.20392157
7.3840003 9.6870003 -1.598 0.34117648
7.4610004 9.6870003 -1.675 0.3137255
7.5380001 9.6870003 -1.829 0.28235295
7.5380001 9.6870003 -1.752 0.39215687
7.5380001 9.6870003 -1.752 0.29019609
7.6920004 9.6870003 -1.906 0.19215687
7.7690001 9.6870003 -1.906 0.22352941
7.8460002 9.6870003 -1.906 0.19215687
7.8460002 9.7639999 -1.906 0.25098041
7.8460002 9.7639999 -1.906 0.20392157
7.9230003 9.6870003 -1.906 0.26274511
7.6920004 9.7639999 -1.752 0.3019608
7.6920004 9.7639999 -1.752 0.17254902
7.7690001 9.6870003 -1.752 0.19215687
7.7690001 9.6870003 -1.752 0.4627451
7.7690001 9.6870003 -1.752 0.29019609
7.8460002 9.6870003 -1.752 0.32156864
7.8460002 9.6870003 -1.752 0.25098041
7.9230003 9.6870003 -1.752 0.41176471
8 9.7639999 -1.752 0.17254902
7.6920004 9.6870003 -0.67400002 0.29019609
8.2309999 9.9180002 -0.67400002 0.51372552
8.2309999 9.6870003 -0.597 0.38039216
8.2309999 9.6870003 -0.597 0.36078432
8.2309999 9.7639999 -0.597 0
8.2309999 9.7639999 -0.597 0.34117648
8.2309999 9.8410006 -0.597 0.35294119
8.3080006 9.6870003 -0.597 0.23137255
8.3080006 9.7639999 -0.597 0.18039216
8.3080006 9.7639999 -0.51999998 0
8.3080006 9.8410006 -0.51999998 0.12156863
8.3850002 9.9180002 -0.51999998 0.14117648
8.3850002 9.9180002 -0.44299999 0.50196081
8.4619999 9.8410006 -0.44299999 0.10196079
8.4619999 9.9180002 -0.366 0.33333334
8.4619999 9.9180002 -0.366 0.37254903
8.4619999 9.7639999 -0.212 0.18039216
8.5390005 9.6870003 -0.13500001 0.070588239
8.5390005 9.7639999 -0.13500001 0
8.5390005 9.7639999 -0.13500001 0
8.4619999 9.8410006 -0.289 0.14117648
8.5390005 9.8410006 -0.212 0
8.5390005 9.8410006 -0.13500001 0.13333334
8.6160002 8.224 -1.829 0.24313726
8.6160002 8.3010006 -1.829 0.28235295
8.6160002 8.3780003 -1.829 0.25098041
8.6160002 8.3780003 -1.829 0.19215687
8.6160002 8.3780003 -1.829 0.27058825
8.6929998 8.3010006 -1.829 0.19215687
8.6160002 8.3010006 -1.29 0.16078432
8.6160002 8.3010006 -1.29 0.16078432
8.6929998 8.3010006 -1.29 0.14117648
8.6929998 8.3780003 -1.367 0.3019608
8.7700005 8.224 -1.29 0.34117648
8.8470001 8.224 -1.29 0.18039216
8.8470001 8.224 -1.29 0.23137255
8.7700005 8.3010006 -1.367 0.20392157
8.7700005 8.3010006 -1.29 0.38039216
8.7700005 8.3010006 -1.29 0.27058825
8.6160002 8.224 -1.2130001 0.36078432
8.6160002 8.224 -1.2130001 0.36078432
8.6929998 8.224 -1.2130001 0.3137255
8.6160002 8.224 -1.059 0.5529412
8.6160002 8.224 -1.059 0.34117648
8.6160002 8.224 -0.98199999 0.43137255
8.6929998 8.224 -1.059 0.3019608
8.6929998 8.224 -0.98199999 0.29019609
8.6929998 8.224 -0.98199999 0.4509804
8.6929998 8.224 -0.98199999 0.35294119
8.6160002 8.3010006 -1.136 0.36078432
8.6929998 8.3010006 -1.2130001 0.34117648
8.6929998 8.3010006 -1.2130001 0.36078432
8.7700005 8.224 -1.136 0.52156866
8.8470001 8.224 -1.136 0.56078434
8.8470001 8.224 -1.136 0.3137255
8.7700005 8.224 -1.059 0.38039216
8.7700005 8.224 -0.98199999 0.29019609
8.8470001 8.224 -1.059 0.4509804
8.8470001 8.224 -1.059 0.36078432
8.8470001 8.224 -0.98199999 0.3019608
8.8470001 8.224 -0.98199999 0.3137255
8.7700005 8.3010006 -1.2130001 0.32156864
8.8470001 8.3010006 -1.2130001 0.37254903
8.8470001 8.3010006 -1.2130001 0.36078432
8.9239998 8.224 -1.29 0.17254902
9.0010004 8.224 -1.29 0
9.0010004 8.224 -1.29 0.050980393
8.9239998 8.3010006 -1.367 0.4627451
8.9239998 8.3010006 -1.367 0.34117648
9.0010004 8.3010006 -1.367 0.41176471
9.0780001 8.224 -1.29 0
9.1550007 8.224 -1.29 0.14117648
9.0780001 8.3010006 -1.367 0.38039216
8.9239998 8.224 -1.136 0.5529412
8.9239998 8.224 -1.136 0.33333334
9.0010004 8.224 -1.136 0.3137255
8.9239998 8.224 -1.059 0.36078432
8.9239998 8.224 -0.98199999 0.29019609
9.0010004 8.224 -1.059 0.36078432
9.0010004 8.224 -1.059 0.43137255
9.0010004 8.224 -0.98199999 0.3019608
8.9239998 8.3010006 -1.2130001 0.35294119
9.0010004 8.3010006 -1.2130001 0.35294119
9.0010004 8.3010006 -1.2130001 0.34117648
9.0780001 8.224 -1.136 0.5529412
9.1550007 8.224 -1.136 0.5411765
9.1550007 8.224 -1.136 0.3137255
9.0780001 8.224 -1.059 0.42352942
9.0780001 8.224 -1.059 0.40392157
9.0780001 8.224 -0.98199999 0.28235295
9.0780001 8.224 -0.98199999 0.3019608
9.1550007 8.224 -1.059 0.34117648
9.1550007 8.224 -0.98199999 0.28235295
9.1550007 8.224 -0.98199999 0.27058825
9.0780001 8.3010006 -1.2130001 0.35294119
9.1550007 8.3010006 -1.2130001 0.34117648
9.2320004 8.224 -1.29 0.19215687
9.2320004 8.224 -1.29 0.10196079
9.309 8.224 -1.29 0.25098041
9.3860006 8.3010006 -1.29 0.48235294
9.4630003 8.3010006 -1.29 0.27058825
9.2320004 8.224 -1.136 0.33333334
9.309 8.224 -1.136 0.32156864
9.309 8.224 -1.136 0.5529412
9.2320004 8.224 -1.059 0.43137255
9.2320004 8.224 -0.98199999 0.28235295
9.309 8.224 -1.059 0.41176471
9.309 8.224 -1.059 0.33333334
9.309 8.224 -0.98199999 0.28235295
9.2320004 8.3010006 -1.2130001 0.37254903
9.2320004 8.3010006 -1.2130001 0.3019608
9.309 8.3010006 -1.2130001 0.37254903
9.3860006 8.224 -1.136 0.5529412
9.4630003 8.224 -1.136 0.52156866
9.4630003 8.224 -1.136 0.32156864
9.3860006 8.224 -1.059 0.42352942
9.3860006 8.224 -0.98199999 0.28235295
9.3860006 8.224 -0.98199999 0.3137255
9.4630003 8.224 -1.059 0.34117648
9.4630003 8.224 -1.059 0.43137255
9.4630003 8.224 -0.98199999 0.3137255
9.3860006 8.3010006 -1.2130001 0.36078432
9.3860006 8.3010006 -1.2130001 0.34117648
9.4630003 8.3010006 -1.2130001 0.32156864
9.54 8.3010006 -1.29 0.36078432
9.6170006 8.3010006 -1.367 0.25098041
9.6170006 8.3010006 -1.29 0.13333334
9.6940002 8.224 -1.29 0.062745102
9.7709999 8.3010006 -1.29 0
9.54 8.224 -1.136 0.3019608
9.6170006 8.224 -1.136 0.50196081
9.54 8.224 -1.059 0.41176471
9.54 8.224 -0.98199999 0.27058825
9.54 8.224 -0.98199999 0.28235295
9.6170006 8.224 -1.059 0.41176471
9.6170006 8.224 -0.98199999 0.28235295
9.54 8.3010006 -1.2130001 0.21176471
9.6170006 8.3010006 -1.2130001 0.18039216
9.6940002 8.224 -1.136 0.50196081
9.6940002 8.224 -1.136 0.3019608
9.7709999 8.224 -1.2130001 0.3019608
9.7709999 8.224 -1.136 0.38039216
9.6940002 8.224 -1.059 0.39215687
9.6940002 8.224 -1.059 0.39215687
9.6940002 8.224 -0.98199999 0.29019609
9.7709999 8.224 -0.98199999 0.28235295
9.7709999 8.224 -0.98199999 0.32156864
8.6160002 8.224 -0.90499997 0.3019608
8.6160002 8.224 -0.82800001 0.17254902
8.6929998 8.224 -0.90499997 0.29019609
8.6160002 8.3010006 -0.90499997 0.33333334
8.6160002 8.3010006 -0.82800001 0
8.6929998 8.3010006 -0.90499997 0.42352942
8.6929998 8.3010006 -0.90499997 0.40392157
8.6160002 8.3010006 -0.75099999 0.48235294
8.6160002 8.3010006 -0.67400002 0.37254903
8.6929998 8.3010006 -0.75099999 0.33333334
8.6929998 8.3010006 -0.67400002 0.35294119
8.6929998 8.3780003 -0.75099999 0.29019609
8.7700005 8.224 -0.67400002 0.32156864
8.7700005 8.3010006 -0.90499997 0.44313726
8.7700005 8.3010006 -0.82800001 0.44313726
8.7700005 8.3010006 -0.82800001 0.29019609
8.8470001 8.3010006 -0.90499997 0.43137255
8.8470001 8.3010006 -0.90499997 0.34117648
8.8470001 8.3010006 -0.82800001 0.37254903
8.7700005 8.3010006 -0.75099999 0.4509804
8.7700005 8.3010006 -0.75099999 0.42352942
8.7700005 8.3010006 -0.67400002 0.43137255
8.8470001 8.3010006 -0.75099999 0.32156864
8.8470001 8.3010006 -0.67400002 0.41176471
8.8470001 8.3010006 -0.67400002 0.43137255
8.6160002 8.3010006 -0.597 0.25098041
8.6160002 8.3010006 -0.597 0.59215689
8.6160002 8.3010006 -0.51999998 0.18039216
8.6929998 8.3010006 -0.597 0.3137255
8.6929998 8.3010006 -0.597 0.41176471
8.8470001 8.224 -0.51999998 0.38039216
8.8470001 8.224 -0.51999998 0.34117648
8.7700005 8.3010006 -0.597 0.42352942
8.8470001 8.3010006 -0.597 0.38039216
8.8470001 8.3010006 -0.597 0.38039216
8.9239998 8.224 -0.82800001 0.39215687
9.0010004 8.224 -0.82800001 0.36078432
9.0010004 8.224 -0.67400002 0.43137255
8.9239998 8.3010006 -0.90499997 0.35294119
8.9239998 8.3010006 -0.82800001 0.35294119
9.0010004 8.3010006 -0.90499997 0.34117648
9.0010004 8.3010006 -0.90499997 0.4509804
9.0010004 8.3010006 -0.82800001 0.33333334
8.9239998 8.3010006 -0.75099999 0.39215687
8.9239998 8.3010006 -0.75099999 0.43137255
8.9239998 8.3010006 -0.67400002 0.34117648
9.0010004 8.3010006 -0.75099999 0.38039216
9.1550007 8.224 -0.90499997 0.41176471
9.1550007 8.224 -0.82800001 0.34117648
9.1550007 8.224 -0.67400002 0.37254903
9.0780001 8.3010006 -0.90499997 0.41176471
9.0780001 8.3010006 -0.82800001 0.39215687
9.1550007 8.3010006 -0.90499997 0.41176471
9.0780001 8.3010006 -0.75099999 0.53333336
9.0780001 8.3010006 -0.67400002 0.39215687
9.0780001 8.3010006 -0.67400002 0.38039216
9.1550007 8.3010006 -0.75099999 0.5411765
9.1550007 8.3010006 -0.75099999 0.29019609
8.9239998 8.224 -0.51999998 0.39215687
8.9239998 8.3010006 -0.597 0.38039216
9.0010004 8.3010006 -0.597 0.35294119
9.0010004 8.3010006 -0.597 0.36078432
9.0010004 8.3010006 -0.51999998 0.38039216
9.0010004 8.3010006 -0.51999998 0.37254903
9.0780001 8.224 -0.51999998 0.38039216
9.1550007 8.224 -0.51999998 0.16078432
9.1550007 8.224 -0.51999998 0.39215687
9.0780001 8.3010006 -0.597 0.36078432
9.1550007 8.3010006 -0.597 0.37254903
9.1550007 8.3010006 -0.597 0.38039216
9.0780001 8.3010006 -0.366 0.38039216
9.1550007 8.3010006 -0.44299999 0.15294118
9.1550007 8.3010006 -0.44299999 0.34117648
9.1550007 8.3010006 -0.44299999 0.21176471
9.1550007 8.3010006 -0.366 0.14117648
8.6160002 8.3780003 0.018999999 0.43137255
8.6160002 8.3780003 0.018999999 0.23137255
8.6929998 8.3780003 0.018999999 0.19215687
8.7700005 8.3780003 0.018999999 0.16078432
8.7700005 8.3780003 0.018999999 0.18039216
8.7700005 8.3780003 0.096000001 0
8.7700005 8.3780003 0.096000001 0
8.8470001 8.3780003 0.018999999 0.16078432
8.8470001 8.3780003 0.096000001 0
8.8470001 8.3780003 0.096000001 0
9.0780001 8.3010006 -0.212 0
9.1550007 8.3010006 -0.212 0.13333334
9.1550007 8.3780003 -0.13500001 0.12156863
9.1550007 8.3780003 -0.057999998 0.11372549
9.1550007 8.3780003 -0.057999998 0
8.9239998 8.3010006 0.018999999 0.13333334
8.9239998 8.3780003 0.018999999 0.16078432
8.9239998 8.3780003 0.096000001 0
9.0010004 8.3010006 0.018999999 0.18039216
9.0010004 8.3780003 0.096000001 0
9.0010004 8.3780003 0.096000001 0
9.0780001 8.3780003 0.018999999 0.17254902
9.0780001 8.3780003 0.018999999 0.22352941
9.0780001 8.3780003 0.096000001 0
9.1550007 8.3010006 0.018999999 0.11372549
9.1550007 8.3780003 0.096000001 0
9.1550007 8.3780003 0.096000001 0
9.2320004 8.224 -0.90499997 0.40392157
9.2320004 8.224 -0.82800001 0.38039216
9.2320004 8.224 -0.82800001 0.36078432
9.309 8.224 -0.90499997 0.40392157
9.309 8.224 -0.82800001 0.37254903
9.309 8.224 -0.67400002 0.38039216
9.309 8.3010006 -0.90499997 0.40392157
9.2320004 8.3010006 -0.75099999 0.5411765
9.2320004 8.3010006 -0.67400002 0.40392157
9.2320004 8.3010006 -0.67400002 0.38039216
9.309 8.3010006 -0.67400002 0.39215687
9.3860006 8.224 -0.82800001 0.39215687
9.3860006 8.224 -0.82800001 0.38039216
9.3860006 8.224 -0.67400002 0.38039216
9.4630003 8.224 -0.67400002 0.38039216
9.3860006 8.3010006 -0.90499997 0.41176471
9.4630003 8.3010006 -0.90499997 0.39215687
9.4630003 8.3010006 -0.82800001 0.34117648
9.3860006 8.3010006 -0.75099999 0.15294118
9.3860006 8.3010006 -0.75099999 0.13333334
9.4630003 8.3010006 -0.75099999 0.13333334
9.309 8.224 -0.51999998 0
9.309 8.224 -0.51999998 0
9.2320004 8.3010006 -0.597 0.37254903
9.309 8.3010006 -0.597 0.35294119
9.2320004 8.3010006 -0.44299999 0.13333334
9.2320004 8.3010006 -0.366 0.17254902
9.309 8.3010006 -0.44299999 0
9.309 8.3010006 -0.44299999 0.070588239
9.309 8.3010006 -0.366 0.050980393
9.309 8.3010006 -0.366 0.18039216
9.3860006 8.224 -0.51999998 0
9.3860006 8.224 -0.44299999 0
9.3860006 8.3010006 -0.597 0.34117648
9.3860006 8.3010006 -0.597 0.40392157
9.4630003 8.3010006 -0.597 0.43137255
9.4630003 8.3010006 -0.597 0.40392157
9.4630003 8.3010006 -0.51999998 0
9.3860006 8.3010006 -0.366 0
9.4630003 8.3010006 -0.44299999 0
9.4630003 8.3010006 -0.44299999 0
9.4630003 8.3010006 -0.366 0
9.54 8.224 -0.90499997 0.41176471
9.54 8.224 -0.82800001 0.40392157
9.6170006 8.224 -0.90499997 0.41176471
9.6170006 8.224 -0.82800001 0.33333334
9.6170006 8.224 -0.82800001 0.36078432
9.54 8.224 -0.67400002 0.38039216
9.54 8.224 -0.67400002 0.38039216
9.54 8.3010006 -0.90499997 0.40392157
9.54 8.3010006 -0.75099999 0.52156866
9.54 8.3010006 -0.75099999 0.35294119
9.6170006 8.3010006 -0.75099999 0.38039216
9.6170006 8.3010006 -0.75099999 0.47058824
9.6940002 8.224 -0.90499997 0.41176471
9.6940002 8.224 -0.90499997 0.41176471
9.6940002 8.224 -0.82800001 0.39215687
9.7709999 8.224 -0.90499997 0.36078432
9.7709999 8.224 -0.90499997 0.36078432
9.7709999 8.224 -0.90499997 0.39215687
9.6940002 8.224 -0.75099999 0.34117648
9.6940002 8.224 -0.75099999 0.36078432
9.7709999 8.224 -0.75099999 0.25098041
9.6940002 8.3010006 -0.75099999 0.42352942
9.7709999 8.3010006 -0.75099999 0.4627451
9.54 8.224 -0.51999998 0
9.54 8.224 -0.51999998 0.050980393
9.6170006 8.224 -0.51999998 0
9.6170006 8.224 -0.44299999 0
9.54 8.3010006 -0.597 0.35294119
9.6170006 8.3010006 -0.597 0.43137255
9.54 8.3010006 -0.44299999 0
9.54 8.3010006 -0.366 0
9.6170006 8.3010006 -0.44299999 0
9.6170006 8.3010006 -0.366 0
9.6170006 8.3010006 -0.366 0
9.6170006 8.3010006 -0.366 0
9.6940002 8.224 -0.51999998 0
9.7709999 8.224 -0.597 0
9.7709999 8.224 -0.44299999 0
9.6940002 8.3010006 -0.597 0.43137255
9.6940002 8.3010006 -0.597 0.36078432
9.7709999 8.3010006 -0.597 0.36078432
9.6940002 8.3010006 -0.44299999 0.070588239
9.6940002 8.3010006 -0.44299999 0
9.6940002 8.3010006 -0.44299999 0
9.2320004 8.3010006 -0.212 0.062745102
9.2320004 8.3010006 -0.212 0.20392157
9.309 8.3010006 -0.289 0.14117648
9.309 8.3780003 -0.289 0.16078432
9.2320004 8.3010006 -0.057999998 0.050980393
9.2320004 8.3780003 -0.13500001 0
9.2320004 8.3780003 -0.13500001 0.16078432
9.309 8.3780003 -0.13500001 0
9.309 8.3780003 -0.13500001 0
9.309 8.3780003 -0.057999998 0
9.3860006 8.3010006 -0.289 0.070588239
9.3860006 8.3010006 -0.212 0.070588239
9.3860006 8.3010006 -0.212 0
9.3860006 8.3780003 -0.289 0
9.4630003 8.3010006 -0.212 0
9.4630003 8.3010006 -0.212 0
9.4630003 8.3780003 -0.289 0
9.3860006 8.3780003 -0.13500001 0
9.3860006 8.3780003 -0.13500001 0
9.4630003 8.3780003 -0.13500001 0
9.4630003 8.3780003 -0.13500001 0
9.4630003 8.3780003 -0.13500001 0
9.2320004 8.3780003 0.018999999 0.082352944
9.2320004 8.3780003 0.018999999 0.18039216
9.2320004 8.3780003 0.096000001 0
9.309 8.3780003 0.018999999 0.050980393
9.309 8.3780003 0.096000001 0
9.3860006 8.3780003 0.018999999 0
9.3860006 8.3780003 0.096000001 0
9.3860006 8.3780003 0.096000001 0
9.4630003 8.3780003 0.018999999 0
9.4630003 8.3780003 0.096000001 0
9.54 8.3010006 -0.289 0.12156863
9.54 8.3010006 -0.212 0
9.6170006 8.3780003 -0.289 0.11372549
9.54 8.3780003 -0.13500001 0
9.54 8.3780003 -0.13500001 0
9.6170006 8.3780003 -0.13500001 0
9.6170006 8.3780003 -0.13500001 0
9.6170006 8.3780003 -0.13500001 0
9.7709999 8.3780003 -0.13500001 0
9.54 8.3780003 0.018999999 0
9.54 8.3780003 0.018999999 0
9.54 8.3780003 0.096000001 0
9.54 8.3780003 0.096000001 0
9.6170006 8.3780003 0.018999999 0
9.6170006 8.3780003 0.096000001 0
9.6170006 8.3780003 0.17299999 0
9.6940002 8.3780003 0.018999999 0.17254902
9.6940002 8.3780003 0.018999999 0.29019609
9.6940002 8.3780003 0.096000001 0
9.7709999 8.3780003 0.018999999 0.13333334
9.7709999 8.3780003 0.096000001 0
9.6940002 8.3780003 0.17299999 0
9.6940002 8.3780003 0.17299999 0
9.7709999 8.3780003 0.17299999 0
9.9250002 8.224 -1.829 0.3137255
9.9250002 8.224 -1.829 0.32156864
9.8480005 8.3780003 -1.829 0.34117648
9.9250002 8.3010006 -1.829 0.32156864
9.9250002 8.3010006 -1.829 0.28235295
9.9250002 8.3780003 -1.829 0.3137255
10.079 8.224 -1.598 0.5411765
10.079 8.3010006 -1.675 0
10.079 8.3010006 -1.598 0.21176471
10.079 8.3780003 -1.598 0.14117648
10.233 8.224 -1.752 0.51372552
10.233 8.224 -1.752 0.11372549
10.156 8.224 -1.675 0.23137255
10.156 8.224 -1.675 0
10.156 8.224 -1.598 0.4509804
10.156 8.224 -1.598 0.20392157
10.233 8.224 -1.675 0.34117648
10.233 8.224 -1.598 0.19215687
10.233 8.3010006 -1.752 0.15294118
10.156 8.3780003 -1.675 0.11372549
10.31 8.224 -1.752 0.17254902
10.387 8.224 -1.752 0.26274511
10.387 8.224 -1.752 0.3019608
10.31 8.224 -1.598 0.17254902
10.387 8.3010006 -1.675 0.16078432
9.8480005 8.3010006 -1.29 0.10196079
9.8480005 8.3010006 -1.29 0
9.9250002 8.3010006 -1.29 0
10.079 8.224 -1.521 0.40392157
10.079 8.224 -1.444 0.36078432
10.002 8.224 -1.367 0.16078432
10.079 8.224 -1.29 0
10.002 8.3010006 -1.521 0.20392157
10.079 8.3010006 -1.444 0.12156863
10.079 8.3780003 -1.444 0.14117648
10.002 8.3010006 -1.367 0.22352941
10.002 8.3010006 -1.367 0.25098041
10.079 8.3010006 -1.29 0
10.079 8.3780003 -1.29 0.062745102
9.8480005 8.224 -1.2130001 0.51372552
9.8480005 8.224 -1.136 0.40392157
9.9250002 8.224 -1.2130001 0.32156864
9.9250002 8.224 -1.136 0.38039216
9.9250002 8.224 -1.136 0.38039216
9.8480005 8.224 -1.059 0.3137255
9.8480005 8.224 -0.98199999 0.37254903
9.9250002 8.224 -1.059 0.3019608
9.9250002 8.224 -0.98199999 0.40392157
9.9250002 8.224 -0.98199999 0.39215687
10.079 8.224 -1.2130001 0.4509804
10.079 8.224 -1.2130001 0.49019608
10.079 8.224 -1.2130001 0.20392157
10.002 8.224 -1.059 0.26274511
10.002 8.224 -1.059 0.29019609
10.002 8.224 -0.98199999 0.41176471
10.079 8.224 -0.98199999 0.38039216
10.002 8.3010006 -1.2130001 0.14117648
10.156 8.224 -1.444 0.29019609
10.156 8.224 -1.444 0.4509804
10.156 8.224 -1.29 0.39215687
10.156 8.224 -1.29 0.35294119
10.233 8.224 -1.367 0.20392157
10.233 8.224 -1.367 0.22352941
10.233 8.224 -1.29 0.17254902
10.31 8.224 -1.444 0.20392157
10.31 8.224 -1.444 0.18039216
10.387 8.224 -1.444 0.12156863
10.387 8.224 -1.444 0.42352942
10.387 8.224 -1.367 0.12156863
10.387 8.224 -1.367 0.26274511
10.387 8.224 -1.29 0
10.387 8.3010006 -1.29 0.12156863
10.156 8.224 -1.2130001 0.41176471
10.156 8.224 -1.136 0.39215687
10.156 8.224 -1.136 0.33333334
10.233 8.224 -1.2130001 0.22352941
10.233 8.224 -1.136 0.39215687
10.156 8.3010006 -1.136 0.18039216
10.31 8.224 -1.2130001 0.15294118
10.31 8.224 -1.136 0.29019609
10.387 8.224 -1.2130001 0.3019608
10.387 8.224 -1.136 0.29019609
10.31 8.224 -1.059 0
10.387 8.224 -1.059 0.20392157
10.387 8.224 -1.059 0
10.31 8.3010006 -1.059 0
10.31 8.3010006 -1.059 0.090196081
10.541 8.224 -1.829 0.3019608
10.541 8.224 -1.675 0.32156864
10.541 8.224 -1.675 0.26274511
10.464001 8.3010006 -1.675 0.090196081
10.695001 8.224 -1.829 0.29019609
10.695001 8.224 -1.829 0.29019609
10.618 8.224 -1.675 0.36078432
10.695001 8.224 -1.675 0.23137255
10.618 8.3010006 -1.829 0.34117648
10.541 8.224 -1.521 0.12156863
10.541 8.224 -1.521 0.34117648
10.541 8.224 -1.444 0
10.464001 8.224 -1.367 0.12156863
10.464001 8.224 -1.29 0
10.464001 8.224 -1.29 0
10.541 8.224 -1.29 0
10.618 8.224 -1.444 0.32156864
10.695001 8.224 -1.521 0.16078432
10.695001 8.224 -1.521 0.27058825
10.618 8.3010006 -1.367 0.57254905
10.464001 8.224 -1.2130001 0.32156864
10.464001 8.224 -1.2130001 0.32156864
10.464001 8.224 -1.136 0.36078432
10.541 8.224 -1.2130001 0.4509804
10.541 8.224 -1.136 0.48235294
10.464001 8.224 -1.059 0.082352944
10.618 8.224 -1.2130001 0.36078432
10.618 8.224 -1.136 0.20392157
10.695001 8.224 -1.2130001 0.42352942
10.695001 8.3780003 -1.059 0.11372549
10.772 8.224 -1.521 0.4627451
10.772 8.224 -1.444 0.36078432
10.772 8.224 -1.367 0.34117648
10.926001 8.224 -1.444 0.32156864
11.003 8.224 -1.444 0.47058824
10.926001 8.224 -1.29 0.25098041
10.926001 8.224 -1.29 0.51372552
11.003 8.224 -1.367 0.39215687
10.926001 8.3010006 -1.444 0.5411765
10.926001 8.3010006 -1.29 0.25098041
10.926001 8.3780003 -1.29 0.53333336
11.003 8.3010006 -1.367 0.36078432
11.003 8.3010006 -1.367 0.34117648
11.003 8.3780003 -1.367 0.40392157
10.849 8.224 -0.98199999 0.51372552
10.849 8.224 -0.98199999 0.29019609
10.849 8.3780003 -1.136 0.36078432
10.926001 8.224 -1.2130001 0.39215687
10.926001 8.224 -1.136 0.29019609
10.926001 8.224 -0.98199999 0.29019609
11.003 8.224 -1.059 0.41176471
10.926001 8.3010006 -1.2130001 0.33333334
10.926001 8.3010006 -1.136 0.18039216
10.926001 8.3010006 -1.136 0.22352941
10.926001 8.3780003 -1.2130001 0.27058825
10.926001 8.3780003 -1.2130001 0.40392157
11.003 8.3010006 -1.136 0.18039216
10.926001 8.3780003 -1.059 0.40392157
9.8480005 8.224 -0.90499997 0.35294119
9.9250002 8.224 -0.90499997 0.39215687
9.8480005 8.224 -0.75099999 0.16078432
9.9250002 8.224 -0.75099999 0
9.9250002 8.224 -0.75099999 0.12156863
9.8480005 8.3010006 -0.82800001 0.4627451
9.8480005 8.3010006 -0.82800001 0.38039216
9.9250002 8.3010006 -0.82800001 0.34117648
9.8480005 8.3010006 -0.67400002 0.40392157
9.9250002 8.3010006 -0.67400002 0.41176471
9.9250002 8.3010006 -0.67400002 0.34117648
10.002 8.224 -0.90499997 0.35294119
10.079 8.224 -0.90499997 0.36078432
10.079 8.224 -0.90499997 0.39215687
10.002 8.224 -0.75099999 0
10.079 8.224 -0.75099999 0
10.002 8.3010006 -0.82800001 0.51372552
10.079 8.3010006 -0.82800001 0.51372552
10.079 8.3010006 -0.82800001 0.32156864
10.002 8.3010006 -0.67400002 0.33333334
10.079 8.3010006 -0.67400002 0.41176471
9.8480005 8.224 -0.597 0
9.8480005 8.224 -0.51999998 0
9.9250002 8.224 -0.597 0.39215687
9.9250002 8.224 -0.51999998 0
9.8480005 8.3010006 -0.597 0
9.9250002 8.3010006 -0.51999998 0
9.8480005 8.3010006 -0.44299999 0
9.8480005 8.3010006 -0.44299999 0
9.8480005 8.3780003 -0.366 0
9.8480005 8.3780003 -0.366 0.062745102
9.9250002 8.3010006 -0.44299999 0
10.002 8.224 -0.597 0.43137255
10.002 8.224 -0.597 0.28235295
10.002 8.224 -0.51999998 0
10.079 8.224 -0.597 0.37254903
10.079 8.224 -0.51999998 0
10.079 8.224 -0.51999998 0
10.002 8.3010006 -0.44299999 0
10.002 8.3010006 -0.44299999 0
10.002 8.3010006 -0.366 0
10.079 8.3010006 -0.44299999 0
10.079 8.3780003 -0.366 0
10.156 8.224 -0.75099999 0
10.233 8.224 -0.75099999 0.38039216
10.156 8.3010006 -0.82800001 0.34117648
10.233 8.3010006 -0.82800001 0.53333336
10.156 8.3010006 -0.67400002 0.39215687
10.156 8.3010006 -0.67400002 0.35294119
10.233 8.3010006 -0.67400002 0.41176471
10.31 8.224 -0.75099999 0.40392157
10.31 8.224 -0.75099999 0.47058824
10.387 8.224 -0.75099999 0.37254903
10.31 8.3010006 -0.82800001 0.4509804
10.31 8.3010006 -0.82800001 0.32156864
10.387 8.3010006 -0.82800001 0.36078432
10.31 8.3010006 -0.67400002 0.34117648
10.387 8.3010006 -0.67400002 0.41176471
10.156 8.224 -0.597 0.40392157
10.156 8.224 -0.51999998 0
10.233 8.224 -0.597 0.39215687
10.233 8.224 -0.597 0.37254903
10.233 8.224 -0.51999998 0
10.156 8.3010006 -0.44299999 0
10.156 8.3010006 -0.44299999 0
10.156 8.3780003 -0.366 0
10.233 8.3010006 -0.44299999 0
10.233 8.3780003 -0.366 0
10.233 8.3780003 -0.366 0
10.31 8.224 -0.597 0.37254903
10.31 8.224 -0.51999998 0
10.31 8.224 -0.51999998 0
10.387 8.224 -0.597 0.38039216
10.387 8.224 -0.51999998 0
10.31 8.3010006 -0.366 0.15294118
10.31 8.3010006 -0.366 0.082352944
10.387 8.3010006 -0.44299999 0
10.387 8.3010006 -0.44299999 0
9.8480005 8.3010006 -0.212 0
9.9250002 8.3010006 -0.212 0
9.9250002 8.3780003 -0.212 0
9.9250002 8.3780003 -0.212 0
9.8480005 8.3780003 -0.13500001 0
9.8480005 8.3780003 -0.13500001 0
9.8480005 8.3780003 -0.13500001 0
10.002 8.3780003 -0.212 0
10.079 8.3010006 -0.289 0
10.079 8.3780003 -0.212 0
10.079 8.3780003 -0.13500001 0
9.8480005 8.3780003 0.018999999 0.16078432
9.8480005 8.3780003 0.096000001 0
9.8480005 8.3780003 0.096000001 0
9.9250002 8.3780003 0.018999999 0.18039216
9.9250002 8.3780003 0.096000001 0
9.8480005 8.3780003 0.17299999 0
9.8480005 8.3780003 0.17299999 0
9.9250002 8.3780003 0.17299999 0
10.002 8.3780003 0.018999999 0.16078432
10.002 8.3780003 0.096000001 0
10.002 8.3780003 0.096000001 0
10.079 8.3780003 0.018999999 0.14117648
10.079 8.3780003 0.096000001 0
10.002 8.3780003 0.17299999 0
10.079 8.3780003 0.17299999 0
10.156 8.3010006 -0.289 0
10.156 8.3010006 -0.289 0
10.156 8.3780003 -0.212 0
10.156 8.3780003 -0.212 0
10.233 8.3010006 -0.289 0
10.233 8.3780003 -0.212 0
10.156 8.3780003 -0.13500001 0
10.156 8.3780003 -0.13500001 0
10.233 8.3010006 -0.13500001 0
10.233 8.3780003 -0.13500001 0
10.31 8.3010006 -0.289 0.14117648
10.31 8.3010006 -0.212 0
10.387 8.3010006 -0.212 0
10.31 8.3780003 -0.13500001 0
10.31 8.3780003 -0.057999998 0.23137255
10.387 8.3780003 -0.13500001 0
10.156 8.3780003 0.018999999 0.12156863
10.156 8.3780003 0.096000001 0
10.156 8.3780003 0.096000001 0
10.233 8.3010006 0.018999999 0.23137255
10.233 8.3780003 0.018999999 0.21176471
10.233 8.3780003 0.096000001 0
10.156 8.3780003 0.17299999 0
10.156 8.3780003 0.17299999 0
10.156 8.3780003 0.17299999 0
10.233 8.3780003 0.17299999 0
10.31 8.3780003 0.096000001 0
10.387 8.3780003 0.096000001 0
10.31 8.3780003 0.17299999 0
10.387 8.3780003 0.17299999 0
10.387 8.3780003 0.17299999 0
10.464001 8.224 -0.75099999 0.37254903
