ply
format ascii 1.0
comment PCL generated
element vertex 1260
property float x
property float y
property float z
property float intensity
element camera 0
property float view_px
property float view_py
property float view_pz
property float x_axisx
property float x_axisy
property float x_axisz
property float y_axisx
property float y_axisy
property float y_axisz
property float z_axisx
property float z_axisy
property float z_axisz
property float focal
property float scalex
property float scaley
property float centerx
property float centery
property int viewportx
property int viewporty
property float k1
property float k2
end_header
8.1630001 8.3950005 -0.662 0.47058824
8.1450005 8.4840002 -0.52499998 0.48235294
8.1680002 8.4560003 -0.52499998 0.27058825
8.1890001 8.3120003 -0.736 0.36078432
8.2410002 8.3120003 -0.73799998 0.27058825
8.2510004 8.3790007 -0.66600001 0.51372552
8.2960005 8.3140001 -0.741 0.20392157
8.2270002 8.3290005 -0.60399997 0.43137255
8.2730007 8.3240004 -0.60600001 0.38039216
8.3010006 8.3790007 -0.528 0.37254903
8.2230005 8.4040003 -0.66600001 0.3019608
8.2010002 8.4350004 -0.52499998 0.39215687
8.2200003 8.4020004 -0.52399999 0.36078432
8.2550001 8.3850002 -0.52499998 0.42352942
8.3290005 8.3190002 -0.74299997 0.26274511
8.3670006 8.3060007 -0.74599999 0.13333334
8.3480005 8.3730001 -0.671 0.50196081
8.4140005 8.3000002 -0.74699998 0
8.3970003 8.3690004 -0.67199999 0.35294119
8.3760004 8.3200006 -0.611 0.36078432
8.3320007 8.3310003 -0.61000001 0.38039216
8.3270006 8.3790007 -0.528 0.38039216
8.4180002 8.3120003 -0.61199999 0.4509804
8.4420004 8.3380003 -0.53200001 0.082352944
8.4130001 8.3600006 -0.53200001 0.12156863
8.3179998 8.3950005 -0.67000002 0.34117648
8.3880005 8.3880005 -0.53200001 0.16078432
8.1920004 8.3190002 -0.45699999 0.36078432
8.2460003 8.3200006 -0.45899999 0.24313726
8.2960005 8.3460007 -0.463 0.35294119
8.2040005 8.2800007 -0.382 0
8.2550001 8.3060007 -0.31799999 0.18039216
8.2580004 8.4390001 -0.46599999 0.20392157
8.2530003 8.4870005 -0.46599999 0.17254902
8.3290005 8.3270006 -0.463 0.52156866
8.3790007 8.3240004 -0.46599999 0.34117648
8.4200001 8.3120003 -0.46599999 0.29019609
8.3260002 8.3520002 -0.389 0.26274511
8.3740005 8.3720007 -0.324 0.29019609
8.3650007 8.4980001 -0.396 0
8.3270006 8.3460007 -0.25099999 0.56078434
8.4000006 8.3830004 -0.176 0.36078432
8.3950005 8.3540001 -0.105 0.18039216
8.3740005 8.4090004 -0.176 0.21176471
8.3860006 8.4590006 -0.255 0.17254902
8.4590006 8.2919998 -0.75 0
8.4560003 8.3760004 -0.676 0.4627451
8.5130005 8.2930002 -0.75199997 0
8.5580006 8.2840004 -0.755 0
8.5150003 8.3810005 -0.68000001 0.32156864
8.5360003 8.3760004 -0.68099999 0.48235294
8.4800005 8.3190002 -0.616 0.35294119
8.4820004 8.2720003 -0.52999997 0
8.4940004 8.3360004 -0.53399998 0
8.5080004 8.3200006 -0.61699998 0.40392157
8.5580006 8.3170004 -0.62 0.35294119
8.6050005 8.2790003 -0.75800002 0
8.6350002 8.3660002 -0.685 0.48235294
8.6630001 8.3070002 -0.76300001 0
8.6760006 8.2680006 -0.75999999 0.17254902
8.6140003 8.3190002 -0.62199998 0.38039216
8.6220007 8.3550005 -0.54100001 0.59215689
8.6599998 8.3120003 -0.625 0.37254903
8.6920004 8.3710003 -0.54500002 0.25098041
8.6050005 8.3909998 -0.685 0.28235295
8.4870005 8.3240004 -0.47 0.21176471
8.5530005 8.3380003 -0.47299999 0.25098041
8.5820007 8.2880001 -0.47299999 0.18039216
8.5880003 8.3190002 -0.47299999 0.15294118
8.6520004 8.3030005 -0.47499999 0.18039216
8.6999998 8.3769999 -0.68900001 0.29019609
8.7460003 8.3690004 -0.69099998 0.33333334
8.7800007 8.3140001 -0.76899999 0.29019609
8.7849998 8.3530006 -0.69199997 0.42352942
8.7060003 8.3010006 -0.62599999 0.35294119
8.7160006 8.3670006 -0.546 0.41176471
8.7720003 8.3120003 -0.63 0.43137255
8.8120003 8.2980003 -0.63099998 0.32156864
8.7680006 8.3650007 -0.54699999 0.3137255
8.8170004 8.3590002 -0.55000001 0.42352942
8.8380003 8.3150005 -0.773 0.44313726
8.8400002 8.3530006 -0.69499999 0.4509804
8.8839998 8.3690004 -0.699 0.32156864
8.9250002 8.3540001 -0.69999999 0.43137255
8.8590002 8.3170004 -0.63499999 0.43137255
8.8690004 8.3550005 -0.551 0.38039216
8.9200001 8.3210001 -0.63800001 0.41176471
8.9160004 8.3470001 -0.55299997 0.38039216
8.8690004 8.2980003 -0.484 0.34117648
8.9160004 8.2890005 -0.486 0.38039216
8.4450006 8.4590006 -0.108 0.14117648
8.4990005 8.4520006 -0.046999998 0.12156863
8.5419998 8.4420004 -0.046999998 0
8.5010004 8.4090004 0.037 0.21176471
8.4970007 8.4590006 0.037 0.19215687
8.5340004 8.3880005 0.037 0.12156863
8.5810003 8.3810005 0.037 0
8.6300001 8.3780003 0.037 0.23137255
8.6870003 8.3800001 0.035 0.43137255
8.7160006 8.3810005 0.035 0.19215687
8.7560005 8.4650002 0.109 0
8.7870007 8.3970003 0.035 0.18039216
8.7910004 8.4450006 0.109 0
8.8000002 8.4280005 0.109 0
8.9350004 8.3780003 0.034000002 0.16078432
8.8310003 8.3860006 0.035 0.16078432
8.8860006 8.3850002 0.034000002 0.16078432
8.8600006 8.4310007 0.109 0
8.9090004 8.4239998 0.108 0
7.4080005 8.9350004 -1.8329999 0.18039216
7.3780003 8.9840002 -1.836 0.24313726
7.3590002 9.0180006 -1.839 0.18039216
7.3960004 8.9770002 -1.8380001 0.27058825
7.1420002 9.2460003 -1.846 0.18039216
7.0290003 9.3710003 -1.851 0.23137255
7.0050001 9.3990002 -1.852 0.18039216
6.9800005 9.4280005 -1.854 0.26274511
7.0600004 9.3210001 -1.848 0.19215687
7.0870004 9.2950001 -1.846 0.24313726
7.0590005 9.3500004 -1.851 0.26274511
7.1240001 9.2820005 -1.849 0.27058825
7.2850003 9.1009998 -1.841 0.15294118
7.2600002 9.1280003 -1.8430001 0.29019609
7.2050004 9.2070007 -1.848 0.27058825
7.1710005 9.2230005 -1.846 0.24313726
7.2370005 9.1590004 -1.844 0.23137255
7.2300005 9.1800003 -1.846 0.18039216
7.3120003 9.0770006 -1.841 0.23137255
7.3380003 9.0500002 -1.841 0.27058825
7.5320001 8.7160006 -1.818 0.23137255
7.5320001 8.7440004 -1.821 0.18039216
7.5820003 8.5550003 -1.803 0.23137255
7.5900002 8.6190004 -1.813 0.23137255
7.5660005 8.6450005 -1.813 0.19215687
7.5630002 8.6960001 -1.8200001 0.27058825
7.4710002 8.8400002 -1.8279999 0.18039216
7.4540005 8.8760004 -1.831 0.26274511
7.4890003 8.8050003 -1.825 0.23137255
7.5170002 8.7810001 -1.825 0.26274511
7.4320002 8.9060001 -1.831 0.23137255
7.4650002 9.7650003 -1.8279999 0.043137256
7.4840002 9.7259998 -1.825 0.050980393
7.5350003 9.7290001 -1.829 0.19215687
7.5490003 9.7150002 -1.829 0.28235295
7.5950003 9.7130003 -1.8329999 0.21176471
7.6470003 9.7160006 -1.839 0.29019609
7.6890001 9.7060003 -1.841 0.28235295
7.7500005 9.7200003 -1.849 0.19215687
7.8160005 9.7410002 -1.859 0.22352941
7.9220004 9.7160006 -1.867 0.19215687
7.8980002 9.7790003 -1.872 0.20392157
7.9190001 9.7740002 -1.874 0.25098041
8.0310001 9.4490004 -1.844 0.18039216
8.0089998 9.5130005 -1.851 0.19215687
8.0390005 9.4890003 -1.851 0.27058825
8.0950003 9.3430004 -1.839 0.12156863
8.0830002 9.3880005 -1.8430001 0.27058825
8.0600004 9.4210005 -1.844 0.23137255
8.5410004 8.6070004 -1.8 0.19215687
8.5060005 8.6800003 -1.8049999 0.23137255
8.4900007 8.7180004 -1.808 0.18039216
8.4759998 8.7589998 -1.811 0.26274511
8.5290003 8.6480007 -1.8049999 0.27058825
8.5890007 8.5480003 -1.8 0.27058825
8.5720005 8.5840006 -1.801 0.24313726
8.4730005 8.7840004 -1.813 0.20392157
8.4630003 8.8290005 -1.818 0.13333334
7.9750004 9.5950003 -1.8559999 0.23137255
7.9490004 9.6260004 -1.857 0.17254902
8.0080004 9.5710001 -1.857 0.25098041
7.9490004 9.6870003 -1.8660001 0.26274511
7.0070004 8.7329998 -1.311 0
7.0120001 8.7670002 -1.316 0
7.098 8.5670004 -1.301 0
7.0570002 8.6280003 -1.38 0
7.0880003 8.6100006 -1.3049999 0
7.1360002 8.5580006 -1.3049999 0
7.0380001 8.7150002 -1.313 0
7.0860004 8.7200003 -1.316 0
7.1050005 8.6870003 -1.316 0
7.1050005 8.7420006 -1.397 0.12156863
7.0050001 8.8150005 -1.321 0
7.0240002 8.8970003 -1.331 0
7.0310001 8.9640007 -1.339 0
7.026 9.0159998 -1.344 0
7.0890002 8.8360004 -1.4069999 0.16078432
7.1450005 8.8480005 -1.4119999 0.20392157
7.0940003 9.0150003 -1.426 0.41176471
7.1080003 8.9750004 -1.423 0.15294118
7.0950003 8.9000006 -1.413 0.42352942
7.1890001 8.5390005 -1.308 0
7.2780004 8.5910006 -1.321 0
7.1980004 8.7320004 -1.456 0.38039216
7.2140002 8.7630005 -1.41 0.14117648
7.2290001 8.7530003 -1.41 0.23137255
7.3600001 8.6330004 -1.331 0
7.3890004 8.6660004 -1.415 0.23137255
7.3060002 8.6800003 -1.408 0.18039216
7.3450003 8.6690006 -1.41 0.19215687
7.2940001 8.7200003 -1.4119999 0.20392157
7.2050004 8.7950001 -1.464 0.41176471
7.197 8.8140001 -1.464 0.20392157
7.2000003 8.8760004 -1.471 0.24313726
7.1960001 8.9280005 -1.477 0.48235294
7.2060003 8.9980001 -1.4859999 0.29019609
7.3160005 8.8179998 -1.476 0.29019609
7.3440003 8.8360004 -1.428 0.36078432
7.3730001 8.8310003 -1.482 0.23137255
7.3770003 8.7790003 -1.477 0.28235295
7.0300002 8.7060003 -1.1109999 0.3019608
7.0140004 8.7420006 -1.112 0.21176471
7.1630001 8.5930004 -1.175 0.22352941
7.0560002 8.5440006 -1.099 0.22352941
7.0970001 8.5430002 -1.0319999 0.16078432
7.0560002 8.5980005 -1.102 0.23137255
7.0450001 8.6400003 -1.1059999 0.14117648
7.0920005 8.6190004 -1.038 0.24313726
7.1050005 8.5810003 -1.0369999 0.44313726
7.0900002 8.6990004 -1.1799999 0.4627451
7.085 8.7480001 -1.183 0.38039216
7.1600003 8.6430006 -1.1799999 0.20392157
7.1550002 8.6929998 -1.183 0.16078432
7.1230001 8.7110004 -1.183 0.32156864
7.0410004 8.6640005 -1.107 0.56078434
7.0840001 8.6640005 -1.043 0.19215687
7.0420003 8.7250004 -1.045 0.32156864
7.072 8.7060003 -1.045 0.29019609
7.0320001 8.6370001 -0.963 0.29019609
7.0300002 8.5230007 -0.88499999 0.21176471
7.0310001 8.5790005 -0.889 0.18039216
7.0190001 8.6190004 -0.89300001 0.21176471
6.96 8.6870003 -0.963 0.99215686
6.9890003 8.6950006 -0.96399999 0.3019608
7.0070004 8.6620007 -0.963 0.4509804
6.9750004 8.7620001 -0.96899998 0.89019608
7.0230002 8.6520004 -0.89399999 0.26274511
7.0170002 8.6999998 -0.89899999 0.23137255
7.026 8.6430006 -0.824 0.38039216
7.006 8.6739998 -0.82499999 0.18039216
6.9780002 8.7650003 -0.89999998 0.87058824
7.0010004 8.7370005 -0.89899999 0.44313726
7.0030003 8.7259998 -0.829 0.27058825
7.0400004 8.5230007 -0.815 0
7.0560002 8.5690002 -0.81999999 0.13333334
7.0540004 8.6220007 -0.824 0.11372549
7.0350003 8.8240004 -1.122 0.41176471
7.0210004 8.8640003 -1.124 0.3137255
7.0190001 8.9180002 -1.1289999 0.28235295
7.0280004 8.9870005 -1.137 0.32156864
7.085 8.8050003 -1.188 0.37254903
7.1000004 8.8790007 -1.198 0.35294119
7.0380001 8.7770004 -1.048 0.39215687
7.052 8.8509998 -1.056 0.28235295
7.0940003 8.9300003 -1.201 0.40392157
7.1000004 8.9960003 -1.2079999 0.38039216
7.0790005 8.9130001 -1.063 0.29019609
7.0830002 8.9759998 -1.0700001 0.29019609
6.9710002 8.8120003 -0.903 0.8509804
6.9970002 8.8460007 -0.977 0.90196079
7.0350003 8.8220005 -0.83700001 0
6.9660001 8.9790001 -0.98699999 0.94117647
6.9950004 8.9000006 -0.98199999 0.90196079
6.9790001 8.9380007 -0.98500001 0.94117647
7.0150003 8.9260006 -0.91600001 0.88235295
7.0130005 8.9820004 -0.92000002 0.89019608
7.0500002 8.8730001 -0.77399999 0.29019609
7.0570002 8.9070005 -0.84399998 0
7.0490003 8.9300003 -0.778 0.33333334
7.0550003 8.9630003 -0.84799999 0.11372549
7.0540004 8.9940004 -0.78299999 0.36078432
7.1890001 8.5130005 -1.17 0.21176471
7.1730003 8.5489998 -1.1720001 0.33333334
7.2210002 8.6999998 -0.98100001 0
7.0330005 9.0830002 -1.351 0
7.1240001 9.0820007 -1.436 0.17254902
7.1250005 9.1409998 -1.443 0.38039216
7.039 9.1520004 -1.359 0
7.1340003 9.2130003 -1.451 0.14117648
7.1160002 9.2490005 -1.454 0.33333334
7.0410004 9.1850004 -1.362 0.16078432
6.9690003 9.5300007 -1.311 0
7.1360002 9.3360004 -1.466 0.20392157
7.0860004 9.3030005 -1.3789999 0.20392157
7.0750003 9.3500004 -1.382 0.33333334
7.0910001 9.4300003 -1.473 0
7.1170001 9.4320002 -1.476 0.27058825
7.1550002 9.4210005 -1.477 0.23137255
7.0940003 9.4370003 -1.3940001 0.21176471
7.052 9.5040007 -1.397 0.18039216
7.0960002 9.5010004 -1.4 0.21176471
7.2090001 9.0600004 -1.494 0.42352942
7.223 9.1360006 -1.5039999 0.28235295
7.2150002 9.1850004 -1.5089999 0.34117648
7.2420001 9.2800007 -1.522 0.28235295
7.2360001 9.3030005 -1.524 0.26274511
7.0020003 9.0300007 -1.262 0
7.0300002 9.1240005 -1.275 0
7.0270004 9.0740004 -1.145 0.3019608
6.9710002 9.1970005 -1.277 0.13333334
7.0120001 9.1599998 -1.277 0
7.0050001 9.1810007 -1.278 0
7.098 9.1400003 -1.223 0.3019608
7.1010003 9.0550003 -1.214 0.35294119
7.131 9.1230001 -1.223 0.33333334
7.0430002 9.0360003 -1.142 0.3019608
7.0790005 9.0300007 -1.073 0.25098041
7.0750003 9.0830002 -1.0779999 0.20392157
7.0400004 9.1490002 -1.152 0.29019609
7.0730004 9.1400003 -1.0829999 0.4509804
7.0410004 9.2110004 -1.158 0.3019608
7.0400004 9.2700005 -1.163 0.3137255
7.1060004 9.2110004 -1.229 0.40392157
7.0830002 9.2130003 -1.089 0.3137255
7.0870004 9.2790003 -1.096 0.18039216
7.0000005 9.0810003 -0.99699998 0.9137255
7.0280004 9.0300007 -0.92500001 0.88235295
7.0080004 9.0630007 -0.926 0.90196079
6.9770002 9.1120005 -0.99900001 0.95294118
6.9750004 9.1370001 -1 0.95294118
7.0220003 9.0650005 -0.85299999 0.18039216
7.0050001 9.1020002 -0.85600001 0
7.0340004 9.1560001 -0.935 0.88235295
7.0220003 9.1999998 -0.93699998 0.92156863
7.085 9.0290003 -0.85399997 0.090196081
7.085 9.0880003 -0.85799998 0.20392157
7.0550003 9.0550003 -0.787 0.36078432
7.0500002 9.1070004 -0.78899997 0.36078432
7.0510001 9.1680002 -0.79299998 0.36078432
7.0620003 9.2130003 -0.79699999 0.36078432
7.0630002 9.2370005 -0.86799997 0.070588239
7.0610003 9.2720003 -0.801 0.35294119
7.0290003 9.4510002 -1.03 0.48235294
7.0300002 9.5150003 -1.035 0.36078432
7.0420003 9.3320007 -1.17 0.3137255
7.0420003 9.3950005 -1.175 0.28235295
7.1240001 9.2940006 -1.239 0.32156864
7.1470003 9.3860006 -1.249 0.4627451
7.1020002 9.3590002 -1.104 0.42352942
7.0610003 9.4490004 -1.181 0.3137255
7.0660005 9.5180006 -1.188 0.19215687
7.1440001 9.4429998 -1.255 0.25098041
7.1140003 9.4960003 -1.2589999 0.38039216
7.1350002 9.4920006 -1.2589999 0.36078432
7.0620003 9.4330006 -1.03 0.23137255
7.0910001 9.4990005 -1.1160001 0.35294119
7.1230001 9.4180002 -1.1109999 0.17254902
7.1240001 9.4820004 -1.117 0.27058825
7.0330005 9.3330002 -1.02 0.3019608
7.0120001 9.3710003 -0.94999999 0.29019609
7.0280004 9.4040003 -0.87900001 0.36078432
7.0180001 9.4090004 -0.954 0.38039216
7.0320001 9.4890003 -0.95999998 0.43137255
7.0310001 9.5310001 -0.889 0.32156864
7.0510001 9.3600006 -0.95099998 0.27058825
7.1200004 9.3909998 -0.958 0.74117649
7.0960002 9.3400002 -0.87699997 0.15294118
7.0630002 9.3340006 -0.80599999 0.33333334
7.0640001 9.3900003 -0.88 0.18039216
7.0920005 9.3970003 -0.88099998 0.3019608
7.0670004 9.4020004 -0.81099999 0.33333334
7.0660005 9.4630003 -0.815 0.36078432
7.0560002 9.5019999 -0.88800001 0.21176471
7.0690002 9.5290003 -0.81999999 0.33333334
7.46 8.6940002 -1.425 0.15294118
7.4350004 8.6660004 -1.341 0.14117648
7.4260001 8.5170002 -1.124 0
7.5630002 8.6190004 -1.1440001 0.53333336
7.6190004 8.6350002 -1.0779999 0.21176471
7.6010003 8.6690006 -1.079 0
7.6750002 8.6430006 -1.0829999 0.24313726
7.5750003 8.6170006 -0.99699998 0.41176471
7.618 8.6120005 -1 0.26274511
7.6710005 8.6170006 -1.0039999 0.3019608
7.6740003 8.6210003 -0.935 0.20392157
7.7140002 8.6120005 -1.007 0.3137255
7.7460003 8.6480007 -0.94 0.3137255
7.8050003 8.6570005 -1.017 0.48235294
7.8410001 8.6990004 -0.94999999 0.29019609
7.8860002 8.6920004 -1.025 0.3019608
7.9300003 8.6850004 -1.027 0.38039216
7.8980002 8.7070007 -0.954 0.19215687
7.1060004 8.5220003 -0.75400001 0.3019608
7.1070004 8.5790005 -0.75800002 0.29019609
7.1000004 8.6260004 -0.75999999 0.20392157
7.0730004 8.7040005 -0.764 0.3019608
7.0440001 8.7250004 -0.764 0.36078432
7.0970001 8.7659998 -0.704 0
7.1080003 8.6900005 -0.764 0.35294119
7.1260004 8.7460003 -0.704 0
7.1380005 8.7060003 -0.70300001 0.27058825
7.0470004 8.7840004 -0.76800001 0.35294119
7.052 8.8179998 -0.76999998 0.32156864
7.1040001 8.8320007 -0.70899999 0.12156863
7.1200004 8.8800001 -0.713 0.15294118
7.0940003 8.9040003 -0.713 0.34117648
7.0880003 8.9560003 -0.71499997 0.19215687
7.085 9.0080004 -0.71799999 0.18039216
7.2450004 8.6400003 -0.704 0.32156864
7.1790004 8.6990004 -0.704 0.3019608
7.2270002 8.6470003 -0.704 0.3019608
7.2060003 8.6760006 -0.704 0.32156864
7.3920002 8.5930004 -0.70899999 0.36078432
7.3740001 8.9390001 -0.653 0.4627451
7.4030004 8.9180002 -0.653 0.49019608
7.3720002 8.9960003 -0.65700001 0.25098041
7.0870004 9.0700006 -0.72299999 0.22352941
7.0830002 9.1230001 -0.727 0.18039216
7.085 9.1850004 -0.73100001 0.3137255
7.1060004 9.2420006 -0.73500001 0.19215687
7.1080003 9.3050003 -0.73799998 0.17254902
7.1100001 9.3690004 -0.74299997 0.16078432
7.1470003 9.4780006 -0.75099999 0.21176471
7.3880005 9.0440006 -0.65899998 0.18039216
7.4040003 9.1210003 -0.66399997 0.41176471
7.4000001 9.1750002 -0.667 0.23137255
7.4160004 9.2550001 -0.67199999 0.23137255
7.4090004 9.3060007 -0.676 0.18039216
7.4480004 8.5489998 -0.70899999 0.19215687
7.4310002 8.5830002 -0.70999998 0.22352941
7.4760003 8.6940002 -0.64399999 0.48235294
7.4650002 8.7390003 -0.64499998 0.27058825
7.4980001 8.6660004 -0.64399999 0.42352942
7.5290003 8.6470003 -0.64399999 0.40392157
7.6330004 8.6000004 -0.64700001 0.36078432
7.6610003 8.5770006 -0.64700001 0.44313726
7.5630002 8.6300001 -0.64399999 0.34117648
7.5920005 8.6090002 -0.64399999 0.43137255
7.6680002 8.5600004 -0.58899999 0.18039216
7.4800005 8.8400002 -0.653 0.20392157
7.473 8.8880005 -0.65399998 0.26274511
7.4910002 8.7980003 -0.64999998 0.21176471
7.4460001 8.9130001 -0.65399998 0.33333334
7.6360002 8.7980003 -0.60100001 0.35294119
7.6220002 8.8380003 -0.602 0.41176471
7.6520004 8.9000006 -0.60699999 0.19215687
7.6580005 8.9640007 -0.61000001 0.18039216
7.6810002 8.5740004 -0.648 0.4627451
7.7220001 8.5650005 -0.64899999 0.41176471
7.7640004 8.5570002 -0.64999998 0.41176471
7.7950001 8.5370007 -0.64999998 0.36078432
7.7200003 8.5370007 -0.58999997 0.32156864
7.7090001 8.6599998 -0.597 0.3137255
7.6980004 8.7580004 -0.60100001 0.21176471
7.7190003 8.7259998 -0.60100001 0.19215687
7.8430004 8.5360003 -0.653 0.39215687
7.8790002 8.5220003 -0.65399998 0.28235295
7.6760001 8.7880001 -0.602 0.38039216
7.4320002 9.3950005 -0.68099999 0.4509804
7.4460001 9.4750004 -0.68699998 0.25098041
7.6850004 9.0530005 -0.616 0.3019608
7.697 9.1240005 -0.62 0.20392157
7.6980004 9.1850004 -0.62199998 0.18039216
7.7030001 9.2490005 -0.62599999 0.3137255
7.7040005 9.3100004 -0.63 0.20392157
7.7180004 9.3570004 -0.63300002 0.18039216
7.7260003 9.4250002 -0.63599998 0.13333334
7.3630004 9.6400003 -1.6619999 0.5529412
7.3830004 9.7290001 -1.675 0.18039216
7.3720002 9.7790003 -1.6799999 0.35294119
7.3460002 9.7580004 -1.586 0.3019608
7.4170003 9.7250004 -1.589 0.34117648
7.3830004 9.7440004 -1.589 0.43137255
7.2480001 9.7400007 -1.2920001 0
7.2920003 9.7580004 -1.527 0
7.3660002 9.8360004 -1.6849999 0.16078432
7.3260002 9.7960005 -1.589 0
7.3390002 9.8450003 -1.596 0.13333334
7.3040004 9.8380003 -1.5369999 0.10196079
7.0290003 9.6330004 -1.265 0
7.0220003 9.5670004 -1.04 0.50196081
7.0930004 9.5930004 -1.267 0
7.0660005 9.6210003 -1.267 0
7.1190004 9.6520004 -1.204 0.51372552
7.0900002 9.6230001 -1.127 0.32156864
7.1000004 9.5740004 -1.122 0.37254903
7.0380001 9.7090006 -1.274 0
7.0400004 9.7770004 -1.28 0
7.1380005 9.7410002 -1.214 0.21176471
7.0580001 9.7740002 -1.058 0.18039216
7.1460004 9.7650003 -1.142 0.32156864
7.0510001 9.5790005 -0.96799999 0.27058825
7.0740004 9.5970001 -0.82499999 0.48235294
7.0860004 9.6680002 -0.90200001 0.14117648
7.0730004 9.7370005 -0.98199999 0.16078432
7.098 9.7480001 -0.90799999 0.39215687
7.1530004 9.8380003 -1.15 0.23137255
7.1210003 9.8450003 -0.917 0.12156863
7.1690001 9.7919998 -0.84299999 0.26274511
7.4520001 9.6940002 -1.676 0.25098041
7.4820004 9.7010002 -1.6799999 0.23137255
7.5410004 9.7150002 -1.688 0.29019609
7.4450002 9.6990004 -1.589 0.20392157
7.5300002 9.7460003 -1.601 0.3137255
7.6110001 9.7410002 -1.696 0.39215687
7.6930003 9.7820005 -1.709 0.17254902
7.7510004 9.7919998 -1.716 0.3019608
7.7740002 9.7580004 -1.714 0.29019609
7.8120003 9.7130003 -1.7130001 0.19215687
7.8620005 9.7110004 -1.7180001 0.25098041
7.8100004 9.7400007 -1.716 0.4627451
7.9130001 9.7130003 -1.723 0.32156864
7.5360003 9.6540003 -0.70099998 0.17254902
7.7700005 9.5410004 -0.64499998 0.18039216
7.7410002 9.6890001 -0.65200001 0.29019609
7.8300004 9.6739998 -0.65399998 0.12156863
8.2849998 8.6970005 -1.7819999 0.15294118
8.2420006 8.5480003 -1.402 0.25098041
8.3900003 8.5770006 -1.336 0.32156864
7.993 8.6710005 -1.0319999 0.36078432
7.9680004 8.6990004 -1.0319999 0.22352941
8.1690006 8.5220003 -1.183 0.34117648
8.1280003 8.5390005 -1.109 0.35294119
8.1400003 8.6070004 -1.114 0.41176471
8.1560001 8.6520004 -1.119 0.3019608
7.947 8.5150003 -0.94499999 0.43137255
7.9480004 8.5710001 -0.949 0.38039216
7.9610004 8.6120005 -0.95300001 0.26274511
8.0080004 8.5230007 -1.022 0.3137255
8.0040007 8.5749998 -1.025 0.5411765
7.9960003 8.6210003 -1.027 0.26274511
7.9590001 8.6640005 -0.95499998 0.15294118
7.9360003 8.6929998 -0.95599997 0.43137255
8.5840006 8.5159998 -1.795 0.19215687
8.5450001 8.7530003 -1.451 0.26274511
8.9160004 8.6120005 -1.387 0.37254903
8.1620007 8.5560007 -0.52899998 0.20392157
8.1730003 8.6490002 -0.53399998 0.50196081
8.1760006 8.7070007 -0.537 0.23137255
8.1800003 8.7659998 -0.53899997 0.18039216
8.1690006 8.8100004 -0.542 0.39215687
8.1730003 8.8710003 -0.54500002 0.24313726
8.1800003 8.9330006 -0.54699999 0.28235295
8.1940002 8.6160002 -0.53299999 0.13333334
8.2700005 8.5580006 -0.47 0.39215687
8.2650003 8.6070004 -0.47299999 0.25098041
8.2650003 8.6599998 -0.47499999 0.25098041
8.2630005 8.7140007 -0.477 0.21176471
8.2840004 8.7630005 -0.47999999 0.3019608
8.3530006 8.5390005 -0.396 0
8.3430004 8.6370001 -0.40099999 0
8.3480005 8.5880003 -0.39899999 0
8.3590002 8.6800003 -0.403 0
8.3740005 8.7510004 -0.40599999 0
8.1929998 8.9770002 -0.55000001 0.26274511
8.2840004 8.8730001 -0.484 0.43137255
8.2790003 8.9239998 -0.486 0.25098041
8.2860003 8.9890003 -0.48899999 0.25098041
8.3690004 8.8010006 -0.40599999 0
8.3710003 8.8590002 -0.41 0.10196079
8.3640003 8.9630003 -0.41299999 0
8.2080002 9.0500002 -0.55299997 0.27058825
8.2230005 9.1260004 -0.55699998 0.29019609
8.2250004 9.1830006 -0.56099999 0.28235295
8.2400007 9.2600002 -0.565 0.33333334
8.2860003 9.0450001 -0.491 0.28235295
8.2910004 9.1079998 -0.49399999 0.3019608
8.3050003 9.1500006 -0.49599999 0.3019608
8.2950001 9.1990004 -0.498 0.27058825
8.3000002 9.2620001 -0.5 0.28235295
8.3530006 9.0370007 -0.41499999 0
8.3400002 9.1380005 -0.419 0
8.3500004 9.0930004 -0.417 0
8.3470001 9.2060003 -0.42199999 0
8.3500004 9.2670002 -0.42399999 0
8.2400007 9.3190002 -0.56699997 0.24313726
8.2470007 9.3870001 -0.56999999 0.34117648
8.2810001 9.4560003 -0.57499999 0.3137255
8.2880001 9.5240002 -0.579 0.35294119
8.3030005 9.3240004 -0.50400001 0.24313726
8.3080006 9.3880005 -0.50599998 0.26274511
8.3030005 9.4429998 -0.509 0.18039216
8.3060007 9.5060005 -0.51099998 0.27058825
8.5030003 8.5159998 0.037 0.20392157
8.4960003 8.5640001 0.035 0.14117648
8.5110006 8.6070004 0.035 0.15294118
8.5240002 8.6739998 0.035 0.28235295
8.5230007 8.7280006 0.035 0.19215687
8.5360003 8.7980003 0.034000002 0.23137255
8.5349998 8.8509998 0.032000002 0.11372549
8.5830002 8.9570007 0.032000002 0.16078432
8.7620001 8.5240002 0.109 0
8.8060007 8.6210003 0.108 0
8.7980003 8.6660004 0.108 0
8.7810001 8.7060003 0.108 0
8.7910004 8.7700005 0.108 0
8.8410006 8.8460007 0.107 0
8.8450003 8.9060001 0.107 0
8.8970003 9.0150003 0.105 0
8.5500002 9.0820007 -0.057 0
8.5360003 9.1230001 -0.057999998 0
8.5640001 9.2130003 -0.198 0.090196081
8.5500002 9.1680002 -0.057999998 0
8.5620003 9.2370005 -0.059999999 0.11372549
8.5460005 9.2800007 -0.059999999 0.12156863
8.6000004 9.0320005 0.029999999 0.16078432
8.5740004 9.1470003 0.028999999 0.35294119
8.6330004 9.0950003 0.028999999 0.18039216
8.6490002 9.1700001 0.028000001 0.15294118
8.5620003 9.3550005 -0.061999999 0.16078432
8.5460005 9.3970003 -0.061999999 0.14117648
8.5600004 9.4710007 -0.064000003 0.43137255
8.5620003 9.5340004 -0.064999998 0.23137255
8.6950006 9.3360004 0.027000001 0.19215687
8.9160004 9.0900002 0.105 0
8.9300003 9.1610003 0.104 0
8.9390001 9.2290001 0.104 0
8.7060003 9.4060001 0.026000001 0.18039216
8.7470007 9.5110006 0.024 0.10196079
7.9630003 9.7110004 -1.726 0.41176471
8.0600004 9.7650003 -1.744 0.17254902
8.2840004 9.5790005 -0.58099997 0.33333334
8.2930002 9.6520004 -0.58499998 0.36078432
8.2740002 9.6920004 -0.58700001 0.38039216
8.2770004 9.7580004 -0.58899999 0.36078432
8.3220005 9.6750002 -0.51899999 0.41176471
8.3249998 9.7410002 -0.523 0.23137255
8.3320007 9.5670004 -0.514 0.26274511
8.3220005 9.6150007 -0.51599997 0.21176471
8.2890005 9.8330002 -0.59299999 0.34117648
8.2790003 9.8100004 -0.52399999 0
8.2919998 9.9000006 -0.597 0.35294119
8.2930002 9.9330006 -0.59799999 0.51372552
8.3240004 9.8000002 -0.52399999 0.18039216
8.3730001 9.8710003 -0.447 0.12156863
8.3800001 9.8150005 -0.44499999 0
8.3950005 9.9280005 -0.44999999 0.14117648
8.4300003 9.9280005 -0.37599999 0.50196081
8.4910002 9.9040003 -0.37799999 0.10196079
8.4870005 9.9640007 -0.301 0.37254903
8.5220003 9.9400005 -0.301 0.33333334
8.5640001 9.5670004 -0.064999998 0.13333334
8.5670004 9.6290007 -0.064999998 0
8.5640001 9.6870003 -0.066 0.070588239
8.5790005 9.7650003 -0.068000004 0
8.4660006 9.8240004 -0.211 0.18039216
8.4780006 9.9020004 -0.213 0.14117648
8.5880003 9.9169998 -0.13699999 0
8.5720005 9.8210001 -0.068999998 0
8.5830002 9.8970003 -0.071000002 0.13333334
8.7600002 9.5860004 0.024 0
8.7849998 9.6739998 0.021 0
9.8909998 8.4660006 -1.798 0.3137255
9.9230003 8.4390001 -1.798 0.34117648
8.9750004 8.3670006 -1.308 0.4627451
9.0340004 8.3690004 -1.313 0.41176471
9.0950003 8.3740005 -1.3200001 0.38039216
9.2940006 8.5040007 -1.348 0.21176471
8.9680004 8.2740002 -1.229 0.17254902
9.0150003 8.2650003 -1.232 0.050980393
9.0630007 8.2580004 -1.2359999 0
9.0220003 8.3330002 -1.1619999 0.34117648
9.0670004 8.3240004 -1.1670001 0.35294119
8.9840002 8.2740002 -1.076 0.5529412
8.9570007 8.3260002 -1.1569999 0.35294119
9.0489998 8.2820005 -1.081 0.3137255
9.1210003 8.3210001 -1.17 0.35294119
9.1480007 8.2820005 -1.2460001 0
9.1850004 8.2890005 -1.249 0.14117648
9.1780005 8.3200006 -1.175 0.34117648
9.0900002 8.2670002 -1.0829999 0.5529412
9.1590004 8.2770004 -1.089 0.3137255
9.2040005 8.2650003 -1.091 0.5411765
9.0150003 8.2810001 -1.002 0.43137255
8.9660006 8.2700005 -0.921 0.29019609
9.0180006 8.2659998 -0.92500001 0.3019608
9.0580006 8.2700005 -1.0039999 0.36078432
9.0790005 8.2700005 -0.92799997 0.3019608
8.9720001 8.3120003 -0.85100001 0.35294119
9.0040007 8.3140001 -0.85299999 0.4509804
8.9940004 8.3050003 -0.78200001 0.35294119
9.0600004 8.3140001 -0.85699999 0.34117648
9.0419998 8.2960005 -0.78299999 0.36078432
9.0760002 8.3010006 -0.787 0.33333334
9.0960007 8.2770004 -1.0089999 0.40392157
9.1280003 8.2620001 -0.93099999 0.28235295
9.1520004 8.2770004 -1.012 0.42352942
9.1800003 8.2580004 -0.935 0.27058825
9.1170006 8.3140001 -0.861 0.41176471
9.1409998 8.3070002 -0.79100001 0.39215687
9.1640005 8.3050003 -0.86199999 0.41176471
9.1900005 8.3000002 -0.792 0.34117648
9.4429998 8.2540007 -0.95300001 0.28235295
9.2370005 8.2820005 -1.2539999 0.10196079
9.2320004 8.3170004 -1.1799999 0.3019608
9.2989998 8.2860003 -1.2589999 0.19215687
9.2950001 8.3210001 -1.1849999 0.37254903
9.2770004 8.2770004 -1.099 0.33333334
9.3200006 8.2650003 -1.101 0.5529412
9.3550005 8.2840004 -1.2640001 0.25098041
9.3400002 8.3340006 -1.1900001 0.37254903
9.3950005 8.3310003 -1.193 0.34117648
9.4350004 8.3010006 -1.272 0.48235294
9.4570007 8.3330002 -1.198 0.36078432
9.3760004 8.2870007 -1.1059999 0.32156864
9.4190006 8.2720003 -1.109 0.5529412
9.4350004 8.2659998 -1.0319999 0.42352942
9.2230005 8.2880001 -1.0190001 0.34117648
9.2650003 8.2740002 -1.02 0.43137255
9.2200003 8.2650003 -0.93699998 0.28235295
9.3240004 8.2740002 -1.025 0.33333334
9.2790003 8.2659998 -0.94099998 0.28235295
9.3360004 8.2630005 -0.94499999 0.28235295
9.2140007 8.2980003 -0.866 0.41176471
9.2740002 8.2980003 -0.87 0.40392157
9.2460003 8.2980003 -0.79699999 0.36078432
9.3310003 8.2960005 -0.87199998 0.40392157
9.3060007 8.2989998 -0.80000001 0.38039216
9.3810005 8.2720003 -1.028 0.41176471
9.3880005 8.2580004 -0.949 0.3137255
9.3720007 8.3070002 -0.87599999 0.40392157
9.3530006 8.2880001 -0.80199999 0.37254903
9.4330006 8.3080006 -0.88 0.41176471
9.4200001 8.2940006 -0.80599999 0.38039216
9.4510002 8.2950001 -0.80900002 0.39215687
9.6370001 8.3450003 -1.293 0.25098041
9.9750004 8.2960005 -1.79 0.32156864
9.9350004 8.3690004 -1.793 0.28235295
9.9640007 8.3400002 -1.793 0.32156864
9.9310007 8.3920002 -1.795 0.3137255
9.5060005 8.2560005 -0.95599997 0.3137255
9.5620003 8.2519999 -0.95999998 0.28235295
9.7200003 8.2560005 -0.972 0.29019609
9.5220003 8.3240004 -1.2819999 0.27058825
9.5100002 8.3270006 -1.2029999 0.32156864
9.5740004 8.3170004 -1.285 0.36078432
9.5560007 8.3140001 -1.206 0.21176471
9.4890003 8.2800007 -1.114 0.32156864
9.5290003 8.2620001 -1.117 0.52156866
9.4770002 8.2790003 -1.0369999 0.43137255
9.5340004 8.2750006 -1.04 0.34117648
9.5830002 8.2650003 -1.043 0.41176471
9.6210003 8.3179998 -1.211 0.18039216
9.6700001 8.3070002 -1.214 0.13333334
9.7180004 8.2950001 -1.2180001 0.062745102
9.6030006 8.2750006 -1.124 0.3019608
9.6480007 8.2600002 -1.127 0.50196081
9.6490002 8.2700005 -1.048 0.41176471
9.7220001 8.2720003 -1.132 0.3019608
9.7060003 8.2650003 -1.053 0.39215687
9.4870005 8.3050003 -0.884 0.39215687
9.5200005 8.3030005 -0.81199998 0.34117648
9.5550003 8.3100004 -0.889 0.40392157
9.5679998 8.2910004 -0.815 0.40392157
9.6020002 8.2600002 -0.963 0.27058825
9.6610003 8.2580004 -0.96799999 0.28235295
9.6009998 8.2980003 -0.88999999 0.41176471
9.6380005 8.2989998 -0.81999999 0.36078432
9.6599998 8.2960005 -0.89399999 0.41176471
9.7230005 8.2980003 -0.89899999 0.41176471
9.6850004 8.2870007 -0.82300001 0.33333334
9.7540007 8.2540007 -1.0549999 0.39215687
9.7770004 8.2510004 -0.97600001 0.32156864
9.8410006 8.2530003 -0.98100001 0.28235295
9.8990002 8.2480001 -0.98299998 0.3137255
9.9650002 8.2510004 -0.98799998 0.3019608
9.7890005 8.3310003 -1.226 0
9.8509998 8.3310003 -1.2309999 0
9.7550001 8.2720003 -1.135 0.50196081
9.8240004 8.2790003 -1.142 0.3019608
9.8290005 8.2650003 -1.061 0.38039216
9.8909998 8.3120003 -1.234 0.10196079
9.9700003 8.3240004 -1.242 0
9.8780003 8.2700005 -1.145 0.51372552
9.8690004 8.2720003 -1.066 0.40392157
9.9400005 8.2700005 -1.15 0.32156864
9.9300003 8.2700005 -1.0700001 0.38039216
9.8170004 8.2980003 -0.90399998 0.39215687
9.7680006 8.2840004 -0.89999998 0.41176471
9.7440004 8.2840004 -0.82499999 0.39215687
9.8070002 8.2849998 -0.829 0.36078432
9.8430004 8.2890005 -0.83099997 0.36078432
9.8670006 8.2870007 -0.90799999 0.37254903
9.9280005 8.2849998 -0.912 0.39215687
9.8980007 8.2820005 -0.83399999 0.35294119
9.9710007 8.2910004 -0.83899999 0.39215687
8.9829998 8.3570004 -0.704 0.39215687
9.0410004 8.3570004 -0.70599997 0.38039216
8.9680004 8.3120003 -0.639 0.34117648
9.0080004 8.2980003 -0.64099997 0.43137255
8.9759998 8.3509998 -0.55599999 0.38039216
9.0790005 8.3100004 -0.64499998 0.38039216
9.0290003 8.3470001 -0.55900002 0.36078432
9.0650005 8.3540001 -0.56099999 0.35294119
9.1280003 8.3030005 -0.648 0.39215687
9.0900002 8.3500004 -0.70899999 0.53333336
9.1800003 8.2980003 -0.64899999 0.37254903
9.1700001 8.3710003 -0.713 0.29019609
9.1140003 8.3460007 -0.56199998 0.36078432
9.1730003 8.3470001 -0.565 0.38039216
8.9770002 8.2950001 -0.48899999 0.39215687
9.0150003 8.3030005 -0.491 0.37254903
9.0710001 8.3030005 -0.493 0.38039216
9.1220007 8.2960005 -0.49399999 0.38039216
9.1760006 8.2930002 -0.498 0.39215687
9.1780005 8.3520002 -0.41999999 0.34117648
9.1690006 8.3710003 -0.41999999 0.21176471
9.1290007 8.3050003 -0.345 0.38039216
9.2460003 8.3030005 -0.653 0.38039216
9.2140007 8.3579998 -0.71499997 0.5411765
9.2820005 8.3100004 -0.65499997 0.40392157
9.3360004 8.3050003 -0.65799999 0.39215687
9.2960005 8.3530006 -0.71899998 0.5411765
9.2270002 8.3450003 -0.56699997 0.37254903
9.2770004 8.3360004 -0.56999999 0.37254903
9.3320007 8.3340006 -0.57099998 0.35294119
9.3850002 8.2960005 -0.66100001 0.38039216
9.3900003 8.3310003 -0.72299999 0.13333334
9.4429998 8.2940006 -0.66299999 0.38039216
9.4390001 8.3220005 -0.727 0.15294118
9.3909998 8.3330002 -0.57499999 0.40392157
9.4350004 8.3470001 -0.57800001 0.34117648
9.2200003 8.2790003 -0.498 0.16078432
9.2280006 8.3460007 -0.42199999 0.15294118
9.2659998 8.3270006 -0.42199999 0.13333334
9.3100004 8.3140001 -0.42399999 0.070588239
9.2160006 8.3310003 -0.34999999 0.14117648
9.2659998 8.3500004 -0.352 0.17254902
9.3210001 8.3450003 -0.35299999 0.18039216
9.2550001 8.4710007 -0.35499999 0.23137255
9.3100004 8.3850002 -0.28 0.16078432
9.3430004 8.2840004 -0.50400001 0
9.3850002 8.2960005 -0.505 0
9.3620005 8.3070002 -0.426 0
9.4350004 8.2870007 -0.50800002 0
9.4130001 8.3000002 -0.42699999 0
9.3710003 8.3380003 -0.35499999 0.050980393
9.3530006 8.3720007 -0.28099999 0.14117648
9.3860006 8.3760004 -0.28099999 0.070588239
9.4390001 8.3450003 -0.35699999 0
9.4570007 8.3850002 -0.28299999 0
9.1260004 8.3380003 -0.191 0
9.1880007 8.3400002 -0.19400001 0.13333334
9.1970005 8.3830004 -0.12 0.12156863
9.1920004 8.4210005 -0.057 0
8.9890003 8.3760004 0.032000002 0.13333334
9.0380001 8.3690004 0.032000002 0.18039216
9.0810003 8.3830004 0.032000002 0.22352941
8.9750004 8.4330006 0.108 0
9.0150003 8.4180002 0.108 0
9.0600004 8.4060001 0.108 0
9.1330004 8.3780003 0.032000002 0.17254902
9.1730003 8.3620005 0.032000002 0.11372549
9.1140003 8.4040003 0.108 0
9.1640005 8.3970003 0.108 0
9.1970005 8.4020004 0.108 0
9.2580004 8.3500004 -0.19499999 0.20392157
9.2980003 8.3330002 -0.19499999 0.062745102
9.2530003 8.3710003 -0.057999998 0.050980393
9.2370005 8.3930006 -0.121 0.16078432
9.2250004 8.3990002 -0.057999998 0.11372549
9.2890005 8.3870001 -0.123 0
9.3900003 8.3640003 -0.198 0
9.4160004 8.3330002 -0.198 0.070588239
9.3760004 8.4130001 -0.124 0
9.3430004 8.3980007 -0.057999998 0
9.3780003 8.4040003 -0.059999999 0
9.4130001 8.3930006 -0.124 0
9.4310007 8.3980007 -0.059999999 0
9.2530003 8.3830004 0.029999999 0.18039216
9.3080006 8.3790007 0.028999999 0.082352944
9.2700005 8.4130001 0.107 0
9.3710003 8.3830004 0.028000001 0.050980393
9.3480005 8.4310007 0.107 0
9.3909998 8.4160004 0.107 0
9.4590006 8.4090004 0.028000001 0
9.4400005 8.4060001 0.105 0
9.4960003 8.2870007 -0.66600001 0.38039216
9.5100002 8.3320007 -0.73100001 0.13333334
9.5550003 8.2860003 -0.66799998 0.38039216
9.5770006 8.3380003 -0.73500001 0.35294119
9.4840002 8.3380003 -0.579 0.40392157
9.5370007 8.3310003 -0.58099997 0.43137255
9.6160002 8.2860003 -0.67199999 0.38039216
9.6090002 8.3390007 -0.73699999 0.52156866
9.6640005 8.3010006 -0.67500001 0.38039216
9.7180004 8.2950001 -0.67699999 0.36078432
9.6810007 8.3480005 -0.741 0.47058824
9.6070004 8.3390007 -0.58399999 0.35294119
9.6550007 8.3290005 -0.58700001 0.43137255
9.6690006 8.2790003 -0.51800001 0
9.7160006 8.3290005 -0.58899999 0.36078432
9.5150003 8.3030005 -0.51099998 0
9.4759998 8.3050003 -0.42899999 0
9.5620003 8.2919998 -0.514 0.050980393
9.5340004 8.3030005 -0.43099999 0
9.5820007 8.3170004 -0.43399999 0
9.4890003 8.3340006 -0.359 0
9.5419998 8.3290005 -0.361 0
9.5630007 8.3730001 -0.287 0.12156863
9.5230007 8.3909998 -0.285 0
9.6020002 8.2750006 -0.514 0
9.6240005 8.3010006 -0.43599999 0
9.6850004 8.2989998 -0.43799999 0
9.6260004 8.3500004 -0.36399999 0
9.6540003 8.3470001 -0.36399999 0
9.6290007 8.3769999 -0.28799999 0.11372549
9.6820002 8.3710003 -0.28999999 0
9.7670002 8.2840004 -0.68000001 0.34117648
9.7480001 8.3530006 -0.745 0.42352942
9.8240004 8.2790003 -0.68199998 0.25098041
9.8060007 8.3500004 -0.74900001 0.4627451
9.7650003 8.3150005 -0.59200001 0.43137255
9.7270002 8.2770004 -0.51899999 0
9.7800007 8.2940006 -0.523 0
9.8179998 8.3360004 -0.59399998 0.36078432
9.8839998 8.2770004 -0.68599999 0.16078432
9.8790007 8.3579998 -0.75199997 0.38039216
9.9280005 8.2600002 -0.68699998 0.12156863
9.9190006 8.3390007 -0.75400001 0.4627451
9.8600006 8.3080006 -0.52700001 0
9.8900003 8.2810001 -0.528 0
9.8740005 8.3310003 -0.59799999 0.40392157
9.9560003 8.2820005 -0.52899998 0.39215687
9.9370003 8.3290005 -0.60100001 0.34117648
9.7490005 8.3030005 -0.44 0
9.8000002 8.2930002 -0.442 0
9.7370005 8.3640003 -0.368 0
9.7659998 8.3360004 -0.36899999 0.070588239
9.8500004 8.3550005 -0.37099999 0
9.8620005 8.2930002 -0.44499999 0
9.9350004 8.3000002 -0.447 0
9.9730005 8.3070002 -0.449 0
9.8830004 8.3290005 -0.37099999 0
9.9499998 8.3320007 -0.375 0
9.8620005 8.3909998 -0.29499999 0.062745102
9.9169998 8.3850002 -0.29699999 0
9.4680004 8.3520002 -0.20100001 0
9.5310001 8.3550005 -0.20200001 0
9.4870005 8.4050007 -0.127 0
9.5120001 8.4169998 -0.061999999 0
9.5360003 8.3950005 -0.12800001 0
9.5640001 8.4099998 -0.061999999 0
9.6000004 8.3620005 -0.20299999 0
9.5980005 8.3970003 -0.12899999 0
9.6400003 8.4070005 -0.12899999 0
9.6260004 8.4099998 -0.064000003 0
9.6739998 8.3990002 -0.064999998 0
9.4960003 8.4160004 0.028000001 0
9.5230007 8.4280005 0.105 0
9.5460005 8.4060001 0.027000001 0
9.5749998 8.4190006 0.104 0
9.5270004 8.4890003 0.24600001 0
9.5600004 8.4660006 0.24600001 0
9.5970001 8.3970003 0.027000001 0
9.6550007 8.3950005 0.026000001 0
9.6160002 8.4280005 0.104 0
9.7200003 8.3980007 0.025 0.29019609
9.6630001 8.4160004 0.104 0
9.7230005 8.4140005 0.104 0
9.6550007 8.4420004 0.24600001 0
9.6120005 8.4580002 0.24600001 0
9.7060003 8.4320002 0.24600001 0
9.7040005 8.4900007 0.186 0
9.6630001 8.5080004 0.18700001 0
9.8410006 8.4210005 -0.134 0
9.8480005 8.4160004 -0.068000004 0
9.8650007 8.3500004 -0.20999999 0
9.9350004 8.3550005 -0.211 0
9.8800001 8.4020004 -0.134 0
9.9400005 8.3980007 -0.13600001 0
9.9130001 8.4160004 -0.068999998 0
9.7659998 8.3850002 0.025 0.17254902
9.7800007 8.4099998 0.104 0
9.8290005 8.3850002 0.024 0.13333334
9.8500004 8.4169998 0.104 0
9.7460003 8.4130001 0.24600001 0
9.7470007 8.4750004 0.186 0
9.8000002 8.4350004 0.24699999 0
9.7910004 8.4850006 0.186 0
9.8470001 8.4800005 0.186 0
9.9020004 8.3950005 0.024 0.16078432
9.9090004 8.4130001 0.103 0
9.9400005 8.3990002 0.023 0.18039216
9.9520006 8.3970003 0.103 0
9.8620005 8.4330006 0.24699999 0
9.8990002 8.4710007 0.186 0
9.9169998 8.4280005 0.24699999 0
9.9650002 8.4130001 0.24699999 0
9.9540005 8.4630003 0.186 0
9.9870005 8.2540007 -1.788 0.3137255
10.189 8.2510004 -1.658 0.23137255
10.204 8.2490005 -1.4119999 0.29019609
10.096001 8.2650003 -1.561 0.5411765
10.137 8.3150005 -1.658 0
10.157001 8.2790003 -1.6569999 0
10.167 8.2980003 -1.571 0.20392157
10.133 8.3500004 -1.573 0.21176471
10.208 8.2770004 -1.575 0.4509804
10.159 8.3860006 -1.668 0.11372549
10.137 8.4060001 -1.5779999 0.14117648
10.081 8.2840004 -1.471 0.40392157
10.064 8.3240004 -1.471 0.20392157
10.071 8.2600002 -1.326 0.16078432
10.067 8.3100004 -1.3279999 0.22352941
10.102 8.3240004 -1.408 0.12156863
10.071 8.3670006 -1.3329999 0.25098041
10.129001 8.2940006 -1.408 0.36078432
10.169001 8.2730007 -1.41 0.4509804
10.109 8.3839998 -1.413 0.14117648
10.345 8.2410002 -1.734 0.17254902
10.244 8.2410002 -1.663 0.34117648
10.463 8.2550001 -1.749 0.26274511
10.308001 8.2400007 -1.346 0.20392157
10.387 8.2490005 -1.354 0.26274511
10.419001 8.2470007 -1.3559999 0.12156863
10.280001 8.2960005 -1.732 0.11372549
10.277 8.3470001 -1.7359999 0.15294118
10.3 8.2589998 -1.7309999 0.51372552
10.258 8.2650003 -1.5779999 0.19215687
10.345 8.2800007 -1.589 0.17254902
10.405001 8.2630005 -1.744 0.3019608
10.446 8.3080006 -1.601 0.16078432
10.321 8.2910004 -1.426 0.18039216
10.267 8.2589998 -1.344 0.22352941
10.366 8.2730007 -1.4299999 0.20392157
10.451 8.2610006 -1.436 0.12156863
10.433001 8.3000002 -1.438 0.42352942
10.107 8.2480001 -1.1619999 0.49019608
10.138 8.2470007 -1.165 0.4509804
10.2 8.2440004 -1.17 0.41176471
10.223001 8.2460003 -1.091 0.39215687
10.044001 8.3030005 -1.16 0.14117648
10.093 8.2890005 -1.163 0.20392157
9.9850006 8.2630005 -1.073 0.38039216
10.128 8.2960005 -1.252 0
10.157001 8.2919998 -1.255 0.35294119
10.145 8.3620005 -1.2589999 0
10.215 8.2870007 -1.2589999 0.39215687
10.162001 8.3030005 -1.089 0.18039216
10.188001 8.2720003 -1.089 0.33333334
10.123 8.3980007 -1.2589999 0.062745102
10.012 8.2620001 -0.99199998 0.29019609
9.9900007 8.2849998 -0.91600001 0.40392157
10.041 8.2730007 -0.91799998 0.41176471
10.076 8.2620001 -0.99699998 0.26274511
10.102 8.2720003 -0.92199999 0.38039216
10.027 8.2840004 -0.84299999 0.35294119
10.084001 8.2770004 -0.847 0.39215687
10.148001 8.2770004 -0.85100001 0.36078432
10.265 8.2440004 -1.175 0.22352941
10.326 8.2390003 -1.1799999 0.15294118
10.336 8.2560005 -1.099 0.29019609
10.447001 8.2400007 -1.107 0.29019609
10.445001 8.2390003 -1.022 0.20392157
10.280001 8.2860003 -1.265 0.17254902
10.27 8.2580004 -1.094 0.39215687
10.409 8.2820005 -1.277 0
10.405001 8.3330002 -1.28 0.12156863
10.475 8.2810001 -1.2819999 0
10.43 8.2680006 -1.1900001 0.3019608
10.489 8.2610006 -1.193 0.32156864
10.428 8.4960003 -1.035 0.20392157
10.333 8.2580004 -1.015 0
10.338 8.3150005 -1.02 0
10.343 8.3720007 -1.022 0.090196081
10.265 8.3310003 -0.77399999 0.53333336
10.329 8.3310003 -0.77700001 0.32156864
10.406 8.2620001 -1.02 0
10.383 8.3200006 -0.77899998 0.4509804
10.443 8.3150005 -0.78299999 0.36078432
10.489 8.3249998 -0.78600001 0.41176471
10.72 8.2440004 -1.777 0.29019609
10.494 8.2530003 -1.364 0.12156863
10.555 8.2480001 -1.369 0
10.713 8.2510004 -1.461 0.27058825
10.55 8.2720003 -1.76 0.3019608
10.518001 8.3120003 -1.609 0.090196081
10.568 8.2980003 -1.614 0.26274511
10.593 8.2910004 -1.6160001 0.32156864
10.67 8.3120003 -1.778 0.34117648
10.706 8.2849998 -1.78 0.29019609
10.649 8.2810001 -1.6210001 0.36078432
10.7 8.2670002 -1.625 0.23137255
10.558001 8.2919998 -1.45 0.34117648
10.605 8.2750006 -1.4529999 0.12156863
10.546 8.2580004 -1.2869999 0
10.64 8.2589998 -1.377 0.32156864
10.67 8.3010006 -1.3 0.57254905
10.762 8.2370005 -1.466 0.16078432
10.845 8.2560005 -1.397 0.36078432
10.843 8.2700005 -1.476 0.4627451
10.777 8.2770004 -1.308 0.34117648
10.965 8.3200006 -1.4119999 0.5411765
10.998 8.2910004 -1.413 0.32156864
10.530001 8.2400007 -1.196 0.32156864
10.575 8.2480001 -1.201 0.4509804
10.515 8.2400007 -1.112 0.36078432
10.577001 8.2350006 -1.117 0.48235294
10.629001 8.2370005 -1.2029999 0.36078432
10.702001 8.2390003 -1.211 0.42352942
10.497001 8.2540007 -1.027 0.082352944
10.529 8.2700005 -1.285 0
10.678 8.2589998 -1.127 0.20392157
10.543 8.3140001 -0.78799999 0.36078432
10.614 8.3170004 -0.792 0.42352942
10.674 8.3100004 -0.796 0.41176471
10.744 8.3100004 -0.80000001 0.39215687
10.994 8.2460003 -1.234 0.25098041
10.758 8.4040003 -1.0549999 0.11372549
10.968 8.2800007 -1.234 0.51372552
10.952001 8.3769999 -1.239 0.53333336
10.98 8.3450003 -1.239 0.25098041
10.931001 8.3200006 -1.063 0.18039216
10.935 8.3760004 -1.066 0.22352941
10.973001 8.2980003 -1.152 0.39215687
10.945001 8.2770004 -1.0599999 0.29019609
10.942 8.3270006 -1.15 0.33333334
10.918 8.4190006 -1.066 0.36078432
10.909 8.4650002 -1.068 0.3019608
10.952001 8.3909998 -1.155 0.27058825
10.956 8.4210005 -1.1569999 0.40392157
10.814 8.2659998 -0.89099997 0.51372552
10.821 8.3150005 -0.80500001 0.48235294
10.876 8.2950001 -0.97600001 0.29019609
10.91 8.2670002 -0.977 0.51372552
10.892 8.3800001 -0.903 0.3019608
10.982 8.2670002 -0.98199999 0.29019609
10.883 8.2650003 -0.89499998 0.27058825
10.897 8.3190002 -0.81 0.28235295
10.938001 8.3240004 -0.81099999 0.44313726
10.949 8.2600002 -0.89899999 0.28235295
10.968 8.4200001 -0.98799998 0.40392157
10.973001 8.4790001 -0.991 0.38039216
9.9890003 8.2580004 -0.69 0
9.9890003 8.3450003 -0.759 0.34117648
10.035 8.3310003 -0.75999999 0.51372552
10.053 8.2840004 -0.69499999 0
10.09 8.3500004 -0.764 0.32156864
9.9890003 8.3200006 -0.602 0.41176471
10.003 8.2680006 -0.53200001 0.28235295
10.068 8.2700005 -0.53399998 0.43137255
10.057 8.3240004 -0.60600001 0.33333334
10.115001 8.2810001 -0.69800001 0
10.17 8.2730007 -0.69999999 0
10.136001 8.3330002 -0.76499999 0.51372552
10.213 8.3430004 -0.76999998 0.34117648
10.128 8.2650003 -0.537 0.37254903
10.121 8.3220005 -0.60799998 0.41176471
10.181001 8.3190002 -0.61199999 0.35294119
10.185 8.2580004 -0.53899997 0.40392157
10.234 8.2720003 -0.542 0.37254903
10.232 8.3330002 -0.61500001 0.39215687
10.018001 8.2910004 -0.44999999 0
10.086 8.2930002 -0.45199999 0
10.030001 8.3450003 -0.37799999 0
10.027 8.3710003 -0.301 0
10.072001 8.3540001 -0.37799999 0
10.145 8.2890005 -0.456 0
10.208 8.2880001 -0.45699999 0
10.121 8.3400002 -0.38 0
10.163 8.3769999 -0.30399999 0
10.199 8.3509998 -0.38299999 0
10.232 8.3240004 -0.38299999 0
10.233 8.3810005 -0.30599999 0
10.109 8.3860006 -0.30199999 0
10.482 8.2560005 -0.55199999 0.39215687
10.263 8.2950001 -0.70599997 0.38039216
10.317 8.2849998 -0.70899999 0.47058824
10.298 8.2700005 -0.54500002 0.39215687
10.291 8.3290005 -0.616 0.41176471
10.357 8.2630005 -0.54699999 0.37254903
10.35 8.3220005 -0.62 0.34117648
10.365001 8.2700005 -0.70999998 0.40392157
10.435 8.2720003 -0.71399999 0.37254903
10.405001 8.3130007 -0.62099999 0.41176471
10.416 8.2580004 -0.55000001 0.38039216
10.47 8.3120003 -0.625 0.36078432
10.27 8.2849998 -0.45899999 0
10.333 8.2820005 -0.463 0
10.301001 8.3270006 -0.38699999 0
10.315001 8.3690004 -0.308 0.082352944
10.274 8.3870001 -0.308 0
10.384 8.2960005 -0.46399999 0
10.452001 8.2980003 -0.46799999 0
10.489 8.3170004 -0.39199999 0
10.431001 8.3240004 -0.38999999 0
10.39 8.3450003 -0.389 0
10.384 8.3690004 -0.31099999 0.15294118
9.9910002 8.3880005 -0.13600001 0
10.044001 8.4050007 -0.13699999 0
10.096001 8.4090004 -0.071000002 0
10.148001 8.3730001 -0.21699999 0
10.181001 8.3460007 -0.21699999 0
10.232 8.3340006 -0.21799999 0
10.110001 8.4070005 -0.138 0
10.176001 8.4090004 -0.141 0
10.218 8.3900003 -0.141 0
10.166 8.4130001 -0.071999997 0
10.196 8.4110003 -0.071999997 0
10.012 8.4070005 0.021 0.16078432
10.008 8.4160004 0.103 0
10.064 8.4090004 0.103 0
10.018001 8.4640007 0.186 0
10.045 8.4280005 0.24699999 0
10.086 8.4070005 0.24699999 0
10.081 8.4630003 0.186 0
10.109 8.4350004 0.02 0.14117648
10.119 8.4020004 0.101 0
10.185 8.3900003 0.02 0.12156863
10.178 8.3970003 0.101 0
10.232 8.3870001 0.101 0
10.16 8.4140005 0.24699999 0
10.143001 8.4630003 0.186 0
10.188001 8.4450006 0.186 0
10.193 8.4160004 0.24699999 0
10.305 8.3660002 -0.22 0
10.341001 8.3430004 -0.222 0.14117648
10.329 8.3730001 -0.14300001 0
10.277 8.3690004 -0.072999999 0
10.279 8.3850002 -0.142 0
10.241 8.3950005 -0.072999999 0
10.362 8.3850002 -0.075000003 0
10.39 8.3690004 -0.14399999 0
10.426001 8.3830004 -0.075999998 0
10.239 8.3790007 0.018999999 0.21176471
10.273001 8.3550005 0.018999999 0.23137255
10.345 8.3850002 0.017999999 0.23137255
10.307 8.3950005 0.101 0
10.258 8.4160004 0.248 0
10.247001 8.4680004 0.186 0
10.325 8.4160004 0.248 0
10.320001 8.4730005 0.186 0
10.386001 8.4040003 0.101 0
10.428 8.4099998 0.1 0
10.487 8.4040003 0.1 0
10.398001 8.4200001 0.248 0
10.378 8.4660006 0.186 0
10.456 8.4130001 0.248 0
10.431001 8.4560003 0.186 0
10.549 8.2550001 -0.55599999 0.39215687
10.612 8.2510004 -0.55699998 0.38039216
10.496 8.2940006 -0.71799999 0.37254903
10.56 8.2910004 -0.72299999 0.36078432
10.535 8.3100004 -0.62699997 0.41176471
10.602 8.3080006 -0.63099998 0.32156864
10.621 8.2840004 -0.72600001 0.43137255
10.678 8.2750006 -0.727 0.34117648
10.647 8.3170004 -0.634 0.38039216
10.66 8.2610006 -0.56099999 0.36078432
10.718 8.3179998 -0.63800001 0.38039216
10.726 8.2580004 -0.56400001 0.36078432
10.503 8.2840004 -0.46799999 0
10.541 8.3310003 -0.39399999 0
10.564 8.2790003 -0.47099999 0
10.595 8.3179998 -0.396 0.090196081
10.565001 8.3530006 -0.315 0.26274511
10.541 8.3870001 -0.315 0.29019609
10.534 8.4370003 -0.317 0.14117648
10.634 8.2790003 -0.47299999 0
10.667 8.3220005 -0.39899999 0.090196081
10.685 8.2659998 -0.47499999 0.12156863
10.72 8.3100004 -0.40099999 0.090196081
10.626 8.3470001 -0.31799999 0.23137255
10.681001 8.3640003 -0.31999999 0.17254902
10.737 8.3520002 -0.31999999 0.11372549
10.857 8.2510004 -0.56900001 0.38039216
10.921 8.2460003 -0.57099998 0.38039216
10.998 8.2490005 -0.57499999 0.38039216
10.748 8.2770004 -0.73199999 0.38039216
10.808001 8.2670002 -0.73500001 0.39215687
