ply
format ascii 1.0
comment PCL generated
element vertex 1318
property float x
property float y
property float z
property float intensity
element camera 0
property float view_px
property float view_py
property float view_pz
property float x_axisx
property float x_axisy
property float x_axisz
property float y_axisx
property float y_axisy
property float y_axisz
property float z_axisx
property float z_axisy
property float z_axisz
property float focal
property float scalex
property float scaley
property float centerx
property float centery
property int viewportx
property int viewporty
property float k1
property float k2
end_header
8.8610001 8.4320002 0.11 0
8.8009996 8.4280005 0.11 0
8.7919998 8.4460001 0.11 0
8.757 8.4659996 0.11 0
8.7629995 8.5249996 0.11 0
8.8070002 8.6210003 0.109 0
8.7980003 8.6669998 0.109 0
8.7819996 8.7060003 0.108 0
8.7919998 8.7700005 0.108 0
8.842 8.8470001 0.107 0
8.8459997 8.9069996 0.107 0
8.8970003 9.0150003 0.106 0
8.9169998 9.0909996 0.106 0
8.9300003 9.1619997 0.105 0
8.9399996 9.2299995 0.105 0
8.9650002 9.3140001 0.104 0
8.9960003 9.3760004 0.104 0
9.0129995 9.4519997 0.103 0
9.0609999 9.5620003 0.102 0
9.0679998 9.6300001 0.102 0.090000004
11.033 8.3579998 0.012 0.19
10.986 8.3769999 0.012 0.2
10.937 8.3940001 0.012 0.16
11.004 8.5010004 0.011 0.40000001
11.055 8.5950003 0.0089999996 0.27000001
11.087 8.6479998 0.0080000004 0.20999999
11.077 8.6969995 0.0080000004 0.47999999
11.062 8.7419996 0.0080000004 0.36000001
11.009 8.7559996 0.0080000004 0
10.612 8.4940004 0.015 0
10.631 8.5640001 0.014 0.07
10.345 8.3859997 0.018999999 0.23
10.274 8.3559999 0.02 0.23
10.239 8.3800001 0.02 0.20999999
10.185 8.3900003 0.021 0.12
11.063 9.1750002 0.0040000002 0.14
10.11 8.4350004 0.021 0.14
10.013 8.408 0.022 0.16
9.941 8.3999996 0.023 0.18000001
9.9029999 8.3950005 0.024 0.16
9.8299999 8.3859997 0.024 0.13
9.7670002 8.3859997 0.025 0.17
9.7209997 8.3990002 0.025 0.28999999
9.6560001 8.3950005 0.026000001 0
9.5979996 8.3979998 0.027000001 0
9.5469999 8.4069996 0.027000001 0
9.4969997 8.4160004 0.028000001 0
9.46 8.4090004 0.028000001 0
9.3719997 8.3839998 0.028999999 0.050000001
9.309 8.3800001 0.029999999 0.079999998
9.2539997 8.3839998 0.030999999 0.18000001
9.1730003 8.3629999 0.032000002 0.11
9.1339998 8.3789997 0.032000002 0.17
9.0810003 8.3830004 0.032000002 0.22
9.0389996 8.3699999 0.033 0.18000001
8.9890003 8.3769999 0.033 0.13
8.9350004 8.3789997 0.034000002 0.16
8.8870001 8.3859997 0.034000002 0.16
8.8310003 8.3870001 0.035 0.16
8.7880001 8.3979998 0.035 0.18000001
8.717 8.382 0.035999998 0.19
8.6879997 8.3809996 0.035999998 0.43000001
8.6309996 8.3789997 0.037 0.23
8.5810003 8.382 0.037 0
8.5340004 8.3889999 0.037999999 0.12
8.5019999 8.4099998 0.037999999 0.20999999
8.4980001 8.46 0.037 0.19
8.5030003 8.5170002 0.037 0.2
8.4969997 8.5649996 0.035999998 0.14
8.5120001 8.6070004 0.035999998 0.15000001
8.5249996 8.6750002 0.035 0.28
8.5240002 8.7290001 0.035 0.19
8.5369997 8.7980003 0.034000002 0.23
8.5360003 8.8520002 0.033 0.11
8.5839996 8.9580002 0.032000002 0.16
8.6009998 9.033 0.030999999 0.16
8.6339998 9.0959997 0.029999999 0.18000001
8.6499996 9.1709995 0.028999999 0.15000001
8.5740004 9.1470003 0.029999999 0.34999999
8.6960001 9.3369999 0.027000001 0.19
8.7060003 9.4069996 0.026000001 0.18000001
8.7480001 9.5120001 0.024 0.1
8.7609997 9.5869999 0.024 0
8.7860003 9.6750002 0.022 0
11.053 8.3540001 -0.085000001 0
11.015 8.3809996 -0.085000001 0.12
11.019 8.4379997 -0.086000003 0.11
11.124 8.5740004 -0.089000002 0.41
11.122 8.6280003 -0.090000004 0.23
11.113 8.677 -0.090999998 0.17
11.126 8.7440004 -0.092 0.34999999
10.996 8.6700001 -0.089000002 0
11.061 8.7770004 -0.090999998 0
10.594 8.4619999 -0.079000004 0
10.427 8.3830004 -0.075000003 0
10.363 8.3859997 -0.074000001 0
10.278 8.3699999 -0.072999999 0
10.242 8.3950005 -0.072999999 0
10.197 8.4119997 -0.071999997 0
10.167 8.4139996 -0.071999997 0
10.097 8.4099998 -0.07 0
9.9139996 8.4169998 -0.068000004 0
9.849 8.4160004 -0.067000002 0
11.178 9.6370001 -0.104 0
9.6750002 8.3999996 -0.064000003 0
9.6260004 8.4110003 -0.063000001 0
9.5649996 8.4110003 -0.061999999 0
9.5129995 8.4180002 -0.061000001 0
9.4320002 8.3990002 -0.059999999 0
9.3780003 8.4049997 -0.059 0
9.3430004 8.3990002 -0.057999998 0
9.2539997 8.3719997 -0.057 0.050000001
9.2259998 8.3999996 -0.057 0.11
9.1920004 8.4219999 -0.056000002 0
10.432 9.8900003 -0.096000001 0.19
10.382 9.9040003 -0.096000001 0.38999999
10.339 9.9259996 -0.094999999 0.25999999
10.206 9.8599997 -0.092 0.18000001
10.131 9.9110003 -0.092 0
8.5430002 8.4429998 -0.046999998 0
8.5 8.4530001 -0.046 0.12
9.9390001 9.9399996 -0.090000004 0.2
9.8780003 9.9420004 -0.089000002 0.23999999
9.8190002 9.9440002 -0.088 0.2
9.7440004 9.9309998 -0.086999997 0
9.6940002 9.9429998 -0.086000003 0
9.6429996 9.9209995 -0.085000001 0
9.54 9.8780003 -0.082999997 0
9.5190001 9.9180002 -0.082999997 0
9.4309998 9.8889999 -0.081 0
9.1269999 9.6309996 -0.072999999 0
8.5509996 9.0830002 -0.056000002 0
8.5369997 9.1239996 -0.057 0
8.5509996 9.1689997 -0.057999998 0
8.5620003 9.2379999 -0.059 0.11
8.5469999 9.2810001 -0.059 0.12
8.5629997 9.3559999 -0.061000001 0.16
8.5469999 9.3979998 -0.061000001 0.14
8.5600004 9.4720001 -0.063000001 0.43000001
8.5629997 9.5340004 -0.064000003 0.23
8.5649996 9.5670004 -0.064000003 0.13
8.5670004 9.6300001 -0.064999998 0
8.5649996 9.6879997 -0.066 0.07
8.5790005 9.7659998 -0.067000002 0
8.573 9.8219995 -0.068000004 0
8.5839996 9.8970003 -0.07 0.13
11.027 8.3800001 -0.156 0.11
10.974 8.3940001 -0.156 0.15000001
11.083 8.5050001 -0.16 0.23999999
11.084 8.5620003 -0.16 0.28
11.092 8.6230001 -0.162 0.27000001
11.107 8.6920004 -0.163 0.2
11.119 8.757 -0.164 0.44
10.926 8.6599998 -0.15899999 0
10.931 8.7209997 -0.16 0
10.391 8.3690004 -0.14300001 0
10.33 8.3739996 -0.142 0
10.279 8.3859997 -0.141 0
10.219 8.3900003 -0.14 0
10.177 8.4090004 -0.14 0
10.111 8.408 -0.138 0
10.045 8.4060001 -0.13699999 0
9.9919996 8.3889999 -0.13500001 0
9.941 8.3990002 -0.13500001 0
9.8809996 8.4020004 -0.133 0
9.842 8.4219999 -0.133 0
11.166 9.6210003 -0.18000001 0.1
11.163 9.6800003 -0.18099999 0
9.6409998 8.408 -0.12899999 0
9.599 8.3979998 -0.12800001 0
9.5369997 8.3959999 -0.127 0
9.4879999 8.4060001 -0.126 0
9.4139996 8.3940001 -0.124 0
9.3769999 8.4139996 -0.124 0
9.29 8.3879995 -0.122 0
9.2379999 8.3940001 -0.121 0.16
9.198 8.3839998 -0.12 0.12
9.3690004 8.5950003 -0.127 0
10.373 9.9180002 -0.17 0.47999999
10.317 9.927 -0.169 0.36000001
8.3950005 8.3549995 -0.104 0.18000001
8.4460001 8.46 -0.107 0.14
9.573 9.9309998 -0.155 0.28
9.5059996 9.9230003 -0.154 0.28999999
9.4610004 9.9390001 -0.153 0.23
9.3559999 9.8900003 -0.15000001 0.30000001
9.3120003 9.9060001 -0.15000001 0.43000001
9.1389999 9.783 -0.14399999 0
9.1239996 9.8280001 -0.145 0
8.5889997 9.9180002 -0.13699999 0
10.993 8.3380003 -0.237 0.15000001
10.992 8.3920002 -0.23800001 0.19
11.04 8.4840002 -0.241 0.38999999
11.034 8.5340004 -0.242 0.31
11.044 8.5970001 -0.244 0.31
11.068 8.6440001 -0.245 0.20999999
11.071 8.7019997 -0.24600001 0.47999999
11.156 8.8260002 -0.25099999 0
10.817 8.6129999 -0.23800001 0
10.342 8.3430004 -0.221 0.14
10.305 8.3669996 -0.22 0
10.233 8.335 -0.21799999 0
10.182 8.3470001 -0.21699999 0
10.149 8.3739996 -0.21699999 0
11.184 9.2840004 -0.26100001 0
11.193 9.3509998 -0.26199999 0
9.9350004 8.3559999 -0.211 0
9.8660002 8.3509998 -0.20900001 0
11.131 9.5690002 -0.26499999 0.20999999
11.132 9.6300001 -0.26699999 0.17
9.6000004 8.3629999 -0.20299999 0
9.5319996 8.3559999 -0.20100001 0
9.4680004 8.3529997 -0.2 0
9.4160004 8.3339996 -0.198 0.07
9.3909998 8.3649998 -0.198 0
9.2980003 8.3339996 -0.19499999 0.059999999
9.2580004 8.3509998 -0.19499999 0.2
9.1890001 8.3409996 -0.193 0.13
9.1269999 8.3380003 -0.191 0
9.323 8.5970001 -0.20200001 0.36000001
9.3149996 8.6440001 -0.20200001 0.27000001
9.3219995 8.7049999 -0.204 0.28999999
9.3129997 8.7519999 -0.205 0.23999999
9.4499998 8.9910002 -0.213 0.56999999
9.4530001 9.0509996 -0.215 0.38999999
9.4420004 9.0979996 -0.215 0.41
9.4610004 9.1440001 -0.21699999 0.41
9.4689999 9.21 -0.21799999 0.34
9.4530001 9.2530003 -0.219 0.56
9.5389996 9.4540005 -0.22499999 0.69999999
8.401 8.3830004 -0.176 0.36000001
8.375 8.4099998 -0.176 0.20999999
9.4709997 9.5349998 -0.226 0.33000001
9.4650002 9.5889997 -0.227 0.38
9.46 9.6440001 -0.228 0.43000001
9.4689999 9.7139997 -0.23 0.34999999
9.4589996 9.7650003 -0.23100001 0.41999999
9.4729996 9.8409996 -0.233 0.27000001
9.4960003 9.927 -0.235 0.63
9.3800001 9.8360004 -0.23100001 0.22
9.3450003 9.8610001 -0.23 0.47999999
9.2810001 9.8559999 -0.229 0
9.224 9.8570004 -0.228 0
8.5649996 9.2139997 -0.198 0.090000004
8.467 9.8249998 -0.211 0.18000001
8.4790001 9.9020004 -0.213 0.14
11.073 8.3389997 -0.33000001 0.22
11 8.3380003 -0.32800001 0.23
10.922 8.3330002 -0.32600001 0.11
10.878 8.3540001 -0.32499999 0.15000001
10.817 8.3610001 -0.32300001 0.20999999
10.737 8.3529997 -0.31999999 0.11
10.682 8.3640003 -0.31900001 0.17
10.627 8.3479996 -0.317 0.23
10.566 8.3540001 -0.315 0.25999999
10.542 8.3879995 -0.315 0.28999999
10.535 8.4379997 -0.31600001 0.14
10.385 8.3699999 -0.31 0.15000001
10.316 8.3690004 -0.308 0.079999998
10.275 8.3879995 -0.30700001 0
10.234 8.382 -0.30599999 0
10.164 8.3780003 -0.30399999 0
10.11 8.3870001 -0.30199999 0
10.027 8.3710003 -0.30000001 0
11.238 9.4460001 -0.36199999 0
9.9180002 8.3859997 -0.29699999 0
9.8629999 8.3920002 -0.29499999 0.059999999
11.229 9.5900002 -0.36500001 0.18000001
11.218 9.6420002 -0.366 0.33000001
9.6829996 8.3710003 -0.289 0
9.6300001 8.3780003 -0.28799999 0.11
9.5640001 8.3739996 -0.28600001 0.12
9.5240002 8.3920002 -0.285 0
9.4580002 8.3859997 -0.28299999 0
9.3870001 8.3760004 -0.28099999 0.07
9.3540001 8.3730001 -0.28 0.14
9.3100004 8.3859997 -0.27900001 0.16
9.4219999 8.5959997 -0.28799999 0.38999999
9.3520002 8.6400003 -0.287 0.38999999
9.3500004 8.6929998 -0.28799999 0.30000001
9.3669996 8.7360001 -0.28999999 0.28999999
9.3540001 8.7790003 -0.29100001 0.30000001
9.5019999 9.0319996 -0.301 0.68000001
9.5010004 9.0880003 -0.303 0.37
9.4960003 9.1400003 -0.30399999 0.44999999
9.5010004 9.2030001 -0.30599999 0.41
9.5179996 9.2489996 -0.308 0.41
9.5030003 9.2930002 -0.308 0.41
9.5170002 9.3649998 -0.31099999 0.27000001
9.6190004 9.526 -0.31799999 0.72000003
9.4899998 9.4569998 -0.31299999 0.30000001
8.3280001 8.3470001 -0.25099999 0.56
8.3870001 8.46 -0.255 0.17
9.3400002 9.4540005 -0.308 0.25999999
9.2880001 9.4610004 -0.30700001 0.28
9.2650003 9.4969997 -0.30700001 0.41
9.2729998 9.5649996 -0.31 0.31
9.2659998 9.6190004 -0.31099999 0.27000001
9.25 9.6619997 -0.31200001 0.2
9.3850002 9.8669996 -0.32100001 0.41999999
9.3079996 9.8470001 -0.31799999 0.14
9.3129997 9.8830004 -0.31999999 0.49000001
9.283 9.9139996 -0.31999999 0
9.2340002 9.9239998 -0.31900001 0
8.5220003 9.941 -0.301 0.33000001
8.4879999 9.9650002 -0.301 0.37
11.091 8.2930002 -0.412 0.07
11.034 8.3050003 -0.41100001 0.090000004
10.981 8.3190002 -0.40900001 0.17
10.931 8.309 -0.40700001 0.28999999
10.864 8.3109999 -0.405 0.11
10.8 8.316 -0.403 0.090000004
10.721 8.3100004 -0.40000001 0.090000004
10.668 8.323 -0.398 0.090000004
10.595 8.3190002 -0.396 0.090000004
10.542 8.3319998 -0.39399999 0
10.49 8.3170004 -0.39199999 0
10.432 8.3249998 -0.38999999 0
10.39 8.3450003 -0.389 0
10.302 8.3280001 -0.38600001 0
10.232 8.3249998 -0.38299999 0
10.2 8.3520002 -0.38299999 0
10.121 8.3409996 -0.38 0
10.073 8.3549995 -0.37799999 0
10.031 8.3459997 -0.377 0
9.9510002 8.3330002 -0.37400001 0
9.8830004 8.3299999 -0.37099999 0
9.8509998 8.3559999 -0.37099999 0
9.7670002 8.3369999 -0.368 0.07
9.7379999 8.3649998 -0.36700001 0
9.6549997 8.3479996 -0.36399999 0
9.6269999 8.3500004 -0.36300001 0
9.5430002 8.3299999 -0.36000001 0
9.4890003 8.335 -0.35800001 0
9.4399996 8.3450003 -0.35699999 0
9.3719997 8.3380003 -0.354 0.050000001
9.3219995 8.3459997 -0.35299999 0.18000001
9.2670002 8.3500004 -0.35100001 0.17
9.217 8.3310003 -0.34900001 0.14
9.1300001 8.3050003 -0.345 0.38
9.2559996 8.4720001 -0.354 0.23
9.3380003 8.6009998 -0.361 0.23
9.3520002 8.6680002 -0.36399999 0.25999999
9.3559999 8.7259998 -0.36500001 0.27000001
9.3559999 8.7810001 -0.36700001 0.28
9.3610001 8.8140001 -0.368 0.27000001
9.4870005 9.217 -0.38499999 0.5
9.5010004 9.2880001 -0.38699999 0.25
9.4860001 9.3319998 -0.38800001 0.60000002
9.4899998 9.4239998 -0.391 0.68000001
8.375 8.3730001 -0.32300001 0.28999999
8.2559996 8.3070002 -0.317 0.18000001
9.3240004 9.4350004 -0.38600001 0.15000001
9.2810001 9.4519997 -0.38600001 0
9.2770004 9.507 -0.38699999 0.13
9.2880001 9.5480003 -0.389 0
9.3470001 9.7910004 -0.398 0.36000001
9.3260002 9.8310003 -0.39899999 0.12
9.323 9.8889999 -0.40099999 0.34
9.2530003 9.8780003 -0.398 0
9.2270002 9.8800001 -0.398 0
8.4919996 9.9049997 -0.377 0.1
8.4309998 9.9289999 -0.37599999 0.5
11.051 8.2480001 -0.48899999 0.36000001
11.03 8.2869997 -0.48899999 0.18000001
10.959 8.2869997 -0.48699999 0.14
10.885 8.2849998 -0.484 0.15000001
10.815 8.2849998 -0.48100001 0
10.772 8.2790003 -0.479 0.13
10.686 8.2670002 -0.47499999 0.12
10.635 8.2799997 -0.47299999 0
10.565 8.2790003 -0.47099999 0
10.504 8.2849998 -0.46799999 0
10.453 8.2980003 -0.46700001 0
10.385 8.2969999 -0.46399999 0
10.334 8.283 -0.46200001 0
10.271 8.2860003 -0.45899999 0
10.209 8.2889996 -0.45699999 0
10.146 8.29 -0.45500001 0
10.086 8.2939997 -0.45199999 0
10.019 8.2910004 -0.44999999 0
9.974 8.3079996 -0.44800001 0
9.9350004 8.3009996 -0.447 0
9.8629999 8.2939997 -0.44400001 0
9.8009996 8.2939997 -0.44100001 0
9.75 8.3039999 -0.44 0
9.6850004 8.3000002 -0.43700001 0
9.625 8.302 -0.435 0
9.5830002 8.3179998 -0.43399999 0
9.5349998 8.3030005 -0.43099999 0
9.4770002 8.3050003 -0.42899999 0
9.4139996 8.3009996 -0.42699999 0
9.3620005 8.3079996 -0.42500001 0
9.3109999 8.3149996 -0.42300001 0.07
9.2670002 8.3280001 -0.42199999 0.13
9.2290001 8.3470001 -0.421 0.15000001
9.1780005 8.3529997 -0.41999999 0.34
9.1700001 8.3719997 -0.41999999 0.20999999
9.2969999 8.5419998 -0.43099999 0.25999999
9.3059998 8.6049995 -0.433 0.19
9.3249998 8.677 -0.43599999 0.2
9.309 8.717 -0.43700001 0.16
9.3129997 8.776 -0.43900001 0.15000001
9.493 9.2040005 -0.461 0.38999999
9.4940004 9.2629995 -0.463 0.34
9.4919996 9.3190002 -0.465 0.41999999
9.4899998 9.3760004 -0.46599999 0.43000001
9.5489998 9.5240002 -0.47400001 0.62
8.3269997 8.3529997 -0.389 0.25999999
8.2040005 8.2810001 -0.382 0
8.3660002 8.4989996 -0.39500001 0
8.3540001 8.54 -0.396 0
8.349 8.5889997 -0.398 0
8.3439999 8.6379995 -0.40000001 0
8.3599997 8.6809998 -0.40200001 0
8.375 8.7519999 -0.405 0
8.3690004 8.802 -0.40599999 0
8.3719997 8.8599997 -0.40900001 0.1
9.2550001 9.8610001 -0.47600001 0
8.3640003 8.9639997 -0.412 0
8.3540001 9.0380001 -0.41499999 0
8.3509998 9.0930004 -0.417 0
8.3409996 9.1389999 -0.41800001 0
8.3479996 9.2060003 -0.421 0
8.3509998 9.2679996 -0.42300001 0
8.3809996 9.816 -0.44499999 0
8.3739996 9.8710003 -0.447 0.12
8.3959999 9.9289999 -0.44999999 0.14
11.057 8.2399998 -0.57700002 0.38
10.999 8.25 -0.57499999 0.38
10.922 8.2469997 -0.57099998 0.38
10.858 8.2519999 -0.56800002 0.38
10.8 8.2620001 -0.56599998 0.36000001
10.727 8.2589998 -0.56300002 0.36000001
10.661 8.2620001 -0.56 0.36000001
10.613 8.2519999 -0.55699998 0.38
10.55 8.2559996 -0.55500001 0.38999999
10.483 8.257 -0.55199999 0.38999999
10.416 8.2580004 -0.54900002 0.38
10.357 8.2639999 -0.546 0.37
10.298 8.2709999 -0.54400003 0.38999999
10.235 8.2729998 -0.54100001 0.37
10.185 8.2589998 -0.53899997 0.40000001
10.128 8.2659998 -0.53600001 0.37
10.069 8.2709999 -0.53399998 0.43000001
10.003 8.2690001 -0.53100002 0.28
9.9560003 8.283 -0.52899998 0.38999999
9.8909998 8.2819996 -0.52700001 0
9.8610001 8.309 -0.52600002 0
9.7810001 8.2950001 -0.52200001 0
9.7279997 8.2770004 -0.51899999 0
9.6700001 8.2799997 -0.51700002 0
9.6029997 8.276 -0.514 0
9.5620003 8.2930002 -0.51300001 0.050000001
9.5150003 8.3039999 -0.51099998 0
9.4359999 8.2880001 -0.50700003 0
9.3859997 8.2969999 -0.505 0
9.3430004 8.2849998 -0.50300002 0
9.2200003 8.2799997 -0.498 0.16
9.177 8.2939997 -0.49700001 0.38999999
9.1230001 8.2969999 -0.49399999 0.38
9.0719995 8.3030005 -0.49200001 0.38
9.0159998 8.3039999 -0.49000001 0.37
8.9779997 8.2959995 -0.48800001 0.38999999
8.9160004 8.29 -0.48500001 0.38
8.8690004 8.2989998 -0.484 0.34
8.6529999 8.3030005 -0.47499999 0.18000001
8.5830002 8.2889996 -0.472 0.18000001
8.5889997 8.3199997 -0.47299999 0.15000001
8.5530005 8.3380003 -0.472 0.25
8.4870005 8.3249998 -0.46900001 0.20999999
8.4209995 8.3129997 -0.46599999 0.28999999
8.3800001 8.3249998 -0.465 0.34
8.3299999 8.3280001 -0.463 0.51999998
8.2969999 8.3470001 -0.463 0.34999999
8.2460003 8.3210001 -0.45899999 0.23999999
8.1929998 8.3199997 -0.45699999 0.36000001
8.2589998 8.4399996 -0.465 0.2
8.2530003 8.4870005 -0.46599999 0.17
8.2709999 8.559 -0.47 0.38999999
8.2650003 8.6070004 -0.472 0.25
8.2659998 8.6610003 -0.47400001 0.25
8.2639999 8.7150002 -0.47600001 0.20999999
8.2849998 8.7639999 -0.479 0.30000001
8.2849998 8.8739996 -0.484 0.43000001
8.2799997 8.9250002 -0.48500001 0.25
8.2869997 8.9890003 -0.48800001 0.25
8.2869997 9.0459995 -0.491 0.28
8.2919998 9.1090002 -0.49399999 0.30000001
8.3050003 9.151 -0.49599999 0.30000001
8.2959995 9.1990004 -0.498 0.27000001
8.3009996 9.2629995 -0.5 0.28
8.3030005 9.3240004 -0.50300002 0.23999999
8.309 9.3889999 -0.50599998 0.25999999
8.3039999 9.4440002 -0.50800002 0.18000001
8.3070002 9.507 -0.51099998 0.27000001
8.3330002 9.5670004 -0.514 0.25999999
8.323 9.6160002 -0.51599997 0.20999999
8.323 9.6759996 -0.51899999 0.41
8.3260002 9.7419996 -0.52200001 0.23
8.3240004 9.8009996 -0.52399999 0.18000001
8.2790003 9.8109999 -0.523 0
11.034 8.2349997 -0.64899999 0
11.006 8.2690001 -0.64899999 0.11
10.955 8.2840004 -0.64700001 0.18000001
10.908 8.3030005 -0.64499998 0.27000001
10.844 8.3079996 -0.64200002 0.34
10.781 8.3140001 -0.63999999 0.36000001
10.719 8.3190002 -0.63700002 0.38
10.647 8.3170004 -0.63300002 0.38
10.603 8.309 -0.63099998 0.31999999
10.536 8.3100004 -0.62699997 0.41
10.471 8.3120003 -0.62400001 0.36000001
10.406 8.3140001 -0.62099999 0.41
10.35 8.323 -0.61900002 0.34
10.291 8.3290005 -0.616 0.41
10.233 8.3339996 -0.61400002 0.38999999
10.182 8.3199997 -0.611 0.34999999
10.121 8.323 -0.60799998 0.41
10.058 8.3240004 -0.60500002 0.33000001
9.9899998 8.3210001 -0.602 0.41
9.9379997 8.3299999 -0.60000002 0.34
9.875 8.3310003 -0.597 0.40000001
9.8190002 8.3360004 -0.59399998 0.36000001
9.7650003 8.316 -0.59100002 0.43000001
9.717 8.3290005 -0.58899999 0.36000001
9.6560001 8.3290005 -0.58600003 0.43000001
9.6079998 8.3400002 -0.58399999 0.34999999
9.5380001 8.3319998 -0.58099997 0.43000001
9.4849997 8.3380003 -0.579 0.40000001
9.4359999 8.3479996 -0.57700002 0.34
9.3920002 8.3339996 -0.574 0.40000001
9.3330002 8.335 -0.57099998 0.34999999
9.2770004 8.3369999 -0.56900001 0.37
9.2279997 8.3459997 -0.56699997 0.37
9.1730003 8.3479996 -0.565 0.38
9.1140003 8.3470001 -0.56199998 0.36000001
9.066 8.3549995 -0.56 0.34999999
9.0290003 8.3479996 -0.55800003 0.36000001
8.9770002 8.3520002 -0.55599999 0.38
8.9169998 8.3479996 -0.55299997 0.38
8.8690004 8.3559999 -0.551 0.38
8.8179998 8.3599997 -0.54900002 0.41999999
8.7690001 8.3660002 -0.54699999 0.31
8.717 8.368 -0.54500002 0.41
8.6920004 8.3710003 -0.54400003 0.25
8.6230001 8.3559999 -0.54000002 0.58999997
8.4820004 8.2720003 -0.52999997 0
8.4949999 8.3360004 -0.53399998 0
8.4429998 8.3380003 -0.53100002 0.079999998
8.4139996 8.3610001 -0.53100002 0.12
8.3889999 8.3889999 -0.53100002 0.16
8.3280001 8.3800001 -0.528 0.38
8.302 8.3800001 -0.52700001 0.37
8.2559996 8.3859997 -0.52499998 0.41999999
8.2200003 8.4020004 -0.52399999 0.36000001
8.2019997 8.4359999 -0.52499998 0.38999999
8.1689997 8.4560003 -0.52499998 0.27000001
8.1459999 8.4849997 -0.52499998 0.47999999
8.1630001 8.5570002 -0.52899998 0.2
8.1949997 8.6169996 -0.53299999 0.13
8.1739998 8.6499996 -0.53399998 0.5
8.177 8.7080002 -0.53600001 0.23
8.1809998 8.7670002 -0.53899997 0.18000001
8.1700001 8.8109999 -0.54100001 0.38999999
8.1739998 8.8719997 -0.54400003 0.23999999
8.1800003 8.934 -0.54699999 0.28
8.1940002 8.9779997 -0.54900002 0.25999999
8.2089996 9.0509996 -0.55299997 0.27000001
8.224 9.1260004 -0.55699998 0.28999999
8.2250004 9.184 -0.56 0.28
8.2410002 9.2609997 -0.56400001 0.33000001
8.2410002 9.3199997 -0.56699997 0.23999999
8.2480001 9.3879995 -0.56999999 0.34
8.2819996 9.4560003 -0.57499999 0.31
8.2889996 9.5249996 -0.57800001 0.34999999
8.2840004 9.5790005 -0.58099997 0.33000001
8.2939997 9.6520004 -0.58499998 0.36000001
8.2749996 9.6920004 -0.58600003 0.38
8.2779999 9.7580004 -0.58899999 0.36000001
8.29 9.8339996 -0.59299999 0.34
8.2930002 9.901 -0.59600002 0.34999999
8.2939997 9.934 -0.59799999 0.50999999
11.07 8.2770004 -0.74900001 0.38999999
10.998 8.2770004 -0.745 0.40000001
10.935 8.283 -0.74199998 0.37
10.874 8.2639999 -0.73799998 0.38
10.809 8.2679996 -0.73400003 0.38999999
10.749 8.2770004 -0.73100001 0.38
10.679 8.276 -0.727 0.34
10.622 8.2849998 -0.72500002 0.43000001
10.561 8.2919998 -0.722 0.36000001
10.497 8.2950001 -0.71799999 0.37
10.436 8.2729998 -0.71399999 0.37
10.366 8.2709999 -0.70999998 0.40000001
10.318 8.2860003 -0.708 0.47
10.264 8.2959995 -0.70599997 0.38
10.171 8.2740002 -0.69999999 0
10.116 8.2819996 -0.69700003 0
10.054 8.2849998 -0.69400001 0
9.9890003 8.2580004 -0.69 0
9.9289999 8.2609997 -0.68699998 0.12
9.8850002 8.2770004 -0.685 0.16
9.8249998 8.2799997 -0.68199998 0.25
9.7679996 8.2849998 -0.67900002 0.34
9.7189999 8.2959995 -0.67699999 0.36000001
9.665 8.302 -0.67400002 0.38
9.6169996 8.2869997 -0.671 0.38
9.5559998 8.2869997 -0.66799998 0.38
9.4969997 8.2880001 -0.66500002 0.38
9.4440002 8.2950001 -0.66299999 0.38
9.3859997 8.2969999 -0.66000003 0.38
9.3360004 8.3050003 -0.65799999 0.38999999
9.283 8.3100004 -0.65499997 0.40000001
9.2460003 8.3039999 -0.653 0.38
9.1809998 8.2980003 -0.64899999 0.37
9.1289997 8.3030005 -0.64700001 0.38999999
9.0790005 8.3100004 -0.64499998 0.38
9.0089998 8.2980003 -0.64099997 0.43000001
8.9680004 8.3120003 -0.639 0.34
8.9209995 8.3219995 -0.63700002 0.41
8.8599997 8.3170004 -0.634 0.43000001
8.8120003 8.2980003 -0.63099998 0.31999999
8.7729998 8.3129997 -0.62900001 0.43000001
8.7060003 8.302 -0.62599999 0.34999999
8.6610003 8.3120003 -0.62400001 0.37
8.6149998 8.3199997 -0.62199998 0.38
8.559 8.3170004 -0.61900002 0.34999999
8.5080004 8.3210001 -0.61699998 0.40000001
8.4809999 8.3199997 -0.61500001 0.34999999
8.4189997 8.3120003 -0.61199999 0.44999999
8.3760004 8.3210001 -0.61000001 0.36000001
8.3330002 8.3310003 -0.60900003 0.38
8.2740002 8.3240004 -0.60500002 0.38
8.2279997 8.3299999 -0.60399997 0.43000001
8.1850004 8.3389997 -0.602 0.34999999
8.1499996 8.3290005 -0.60000002 0.50999999
8.1289997 8.3599997 -0.60000002 0.27000001
8.1000004 8.3830004 -0.60000002 0.23999999
8.052 8.3859997 -0.59799999 0.37
8.0159998 8.401 -0.597 0.34999999
7.9749999 8.4110003 -0.59500003 0.41
7.9229999 8.4090004 -0.59299999 0.44999999
7.914 8.4259996 -0.59299999 0.36000001
7.8850002 8.448 -0.59299999 0.33000001
7.8460002 8.4589996 -0.59200001 0.36000001
7.8189998 8.4840002 -0.59200001 0.34999999
7.7859998 8.5010004 -0.59100002 0.33000001
7.7470002 8.5120001 -0.58999997 0.38
7.7210002 8.5380001 -0.58999997 0.31999999
7.6490002 8.5120001 -0.58499998 0.34999999
7.6690001 8.5609999 -0.58899999 0.18000001
7.71 8.6610003 -0.59600002 0.31
7.7199998 8.7270002 -0.60000002 0.19
7.6989999 8.7580004 -0.60000002 0.20999999
7.677 8.7889996 -0.60100001 0.38
7.6370001 8.7989998 -0.60000002 0.34999999
7.6230001 8.8380003 -0.60100001 0.41
7.6529999 8.901 -0.60600001 0.19
7.6589999 8.9650002 -0.60900003 0.18000001
7.6859999 9.0539999 -0.61500001 0.30000001
7.698 9.125 -0.61900002 0.2
7.6989999 9.1850004 -0.62199998 0.18000001
7.704 9.25 -0.62599999 0.31
7.7049999 9.3100004 -0.62900001 0.2
7.7189999 9.3570004 -0.63200003 0.18000001
7.7270002 9.4259996 -0.63599998 0.13
7.7709999 9.5410004 -0.64499998 0.18000001
7.8309999 9.6750002 -0.65399998 0.12
7.7420001 9.6899996 -0.65100002 0.28999999
11.149 8.3199997 -0.824 0.37
11.07 8.3149996 -0.81900001 0.46000001
11.012 8.3260002 -0.81599998 0.38
10.939 8.3240004 -0.81099999 0.44
10.897 8.3199997 -0.80900002 0.28
10.822 8.316 -0.80400002 0.47999999
10.744 8.3100004 -0.79900002 0.38999999
10.675 8.3100004 -0.79500002 0.41
10.614 8.3170004 -0.792 0.41999999
10.544 8.3149996 -0.78799999 0.36000001
10.49 8.3260002 -0.78500003 0.41
10.444 8.316 -0.78200001 0.36000001
10.384 8.3210001 -0.77899998 0.44999999
10.33 8.3310003 -0.77600002 0.31999999
10.265 8.3319998 -0.773 0.52999997
10.214 8.3439999 -0.76999998 0.34
10.137 8.3339996 -0.76499999 0.50999999
10.091 8.3500004 -0.764 0.31999999
10.036 8.3310003 -0.75999999 0.50999999
9.9899998 8.3459997 -0.75800002 0.34
9.9200001 8.3400002 -0.75300002 0.46000001
9.8800001 8.3590002 -0.75199997 0.38
9.8070002 8.3500004 -0.74800003 0.46000001
9.7489996 8.3540001 -0.74400002 0.41999999
9.6820002 8.349 -0.74000001 0.47
9.6099997 8.3400002 -0.736 0.51999998
9.5780001 8.3380003 -0.73400003 0.34999999
9.5109997 8.3330002 -0.73000002 0.13
9.4399996 8.323 -0.72600001 0.15000001
9.3900003 8.3310003 -0.72299999 0.13
9.2969999 8.3540001 -0.71899998 0.54000002
9.2150002 8.3590002 -0.71499997 0.54000002
9.1709995 8.3710003 -0.713 0.28999999
9.0909996 8.3500004 -0.708 0.52999997
9.0410004 8.3570004 -0.70599997 0.38
8.9840002 8.3570004 -0.70300001 0.38999999
8.9259996 8.3549995 -0.699 0.43000001
8.8850002 8.3690004 -0.69800001 0.31999999
8.8409996 8.3540001 -0.69499999 0.44999999
8.7860003 8.3540001 -0.69199997 0.41999999
8.7469997 8.3699999 -0.69099998 0.33000001
8.7010002 8.3780003 -0.68800002 0.28999999
8.6359997 8.3669996 -0.68400002 0.47999999
8.6059999 8.3920002 -0.68400002 0.28
8.5369997 8.3769999 -0.68000001 0.47999999
8.5159998 8.382 -0.67900002 0.31999999
8.4569998 8.3760004 -0.676 0.46000001
8.3979998 8.3699999 -0.67199999 0.34999999
8.349 8.3739996 -0.67000002 0.5
8.3190002 8.3959999 -0.66900003 0.34
8.2519999 8.3800001 -0.66500002 0.50999999
8.224 8.4049997 -0.66500002 0.30000001
8.1639996 8.3959999 -0.66100001 0.47
8.1300001 8.3879995 -0.65899998 0.36000001
8.0860004 8.3940001 -0.65700001 0.54000002
8.0459995 8.4049997 -0.65600002 0.33000001
7.9889998 8.3990002 -0.653 0.51999998
7.9549999 8.415 -0.65200001 0.34
7.8990002 8.4090004 -0.64899999 0.51999998
7.8639998 8.4239998 -0.648 0.47999999
7.868 8.4549999 -0.64899999 0.25
7.8800001 8.5220003 -0.65399998 0.28
7.8439999 8.5369997 -0.653 0.38999999
7.796 8.5380001 -0.64999998 0.36000001
7.7649999 8.5579996 -0.64999998 0.41
7.723 8.566 -0.648 0.41
7.6820002 8.5740004 -0.64700001 0.46000001
7.6620002 8.5780001 -0.64600003 0.44
7.6339998 8.6009998 -0.64600003 0.36000001
7.5929999 8.6099997 -0.64399999 0.43000001
7.5640001 8.6309996 -0.64399999 0.34
7.5300002 8.6470003 -0.64300001 0.40000001
7.4990001 8.6660004 -0.64300001 0.41999999
7.4770002 8.6949997 -0.64300001 0.47999999
7.4660001 8.7390003 -0.64499998 0.27000001
7.4920001 8.7980003 -0.64999998 0.20999999
7.4809999 8.8409996 -0.65200001 0.2
7.474 8.8889999 -0.65399998 0.25999999
7.447 8.9139996 -0.65399998 0.33000001
7.4039998 8.9189997 -0.653 0.49000001
7.375 8.9399996 -0.65200001 0.46000001
7.3730001 8.9960003 -0.65600002 0.25
7.3889999 9.0450001 -0.65899998 0.18000001
7.4050002 9.1219997 -0.66399997 0.41
7.401 9.1759996 -0.667 0.23
7.4169998 9.2559996 -0.67199999 0.23
7.4099998 9.3070002 -0.67500001 0.18000001
7.4330001 9.3959999 -0.68099999 0.44999999
7.447 9.4759998 -0.68699998 0.25
7.5370002 9.6540003 -0.70099998 0.17
11.157 8.2530003 -0.912 0.30000001
11.086 8.2550001 -0.90799999 0.27000001
11.019 8.2589998 -0.90399998 0.38
10.95 8.2609997 -0.89899999 0.28
10.884 8.2659998 -0.89499998 0.27000001
10.815 8.2670002 -0.89099997 0.50999999
10.893 8.3809996 -0.90200001 0.30000001
11.051 8.5290003 -0.91900003 0.30000001
11.035 8.573 -0.92000002 0.34
10.958 8.5679998 -0.91500002 0.38
10.91 8.5860004 -0.91299999 0.40000001
10.836 8.5839996 -0.90799999 0.30000001
10.772 8.5880003 -0.90399998 0.31
10.712 8.5950003 -0.90100002 0.30000001
10.632 8.5869999 -0.89499998 0.30000001
10.566 8.5609999 -0.88999999 0.27000001
10.149 8.2770004 -0.85000002 0.36000001
10.085 8.2770004 -0.84600002 0.38999999
10.028 8.2840004 -0.84200001 0.34999999
9.9720001 8.2910004 -0.83899999 0.38999999
9.8990002 8.283 -0.83399999 0.34999999
9.8439999 8.29 -0.83099997 0.36000001
9.8079996 8.2860003 -0.829 0.36000001
9.7440004 8.2840004 -0.82499999 0.38999999
9.6859999 8.2880001 -0.82200003 0.33000001
9.6389999 8.3000002 -0.81900001 0.36000001
9.5690002 8.2919998 -0.815 0.40000001
9.5200005 8.3030005 -0.81199998 0.34
9.4519997 8.2959995 -0.80800003 0.38999999
9.4209995 8.2950001 -0.80599999 0.38
9.3540001 8.2889996 -0.80199999 0.37
9.3070002 8.3000002 -0.79900002 0.38
9.2469997 8.2980003 -0.796 0.36000001
9.191 8.3009996 -0.792 0.34
9.1420002 8.3079996 -0.79000002 0.38999999
9.0769997 8.302 -0.78600001 0.33000001
9.0430002 8.2969999 -0.78299999 0.36000001
8.9949999 8.3050003 -0.78100002 0.34999999
8.9250002 8.2930002 -0.77600002 0.38999999
8.8920002 8.3140001 -0.77499998 0.37
8.8380003 8.316 -0.77200001 0.44
8.7810001 8.3149996 -0.76899999 0.28999999
8.677 8.2690001 -0.75999999 0.17
8.6639996 8.3079996 -0.76200002 0
8.6059999 8.2790003 -0.75700003 0
8.559 8.2849998 -0.755 0
8.5139999 8.2939997 -0.75199997 0
8.46 8.2930002 -0.74900001 0
8.415 8.3009996 -0.74699998 0
8.368 8.3070002 -0.745 0.13
8.3290005 8.3199997 -0.74299997 0.25999999
8.2969999 8.3149996 -0.741 0.2
8.2419996 8.3120003 -0.73799998 0.27000001
8.1899996 8.3120003 -0.73500001 0.36000001
8.1470003 8.3210001 -0.73299998 0.40000001
8.0959997 8.3199997 -0.73000002 0.31999999
8.0500002 8.3260002 -0.72799999 0.34
8.0059996 8.3319998 -0.72600001 0.38
7.974 8.3249998 -0.72399998 0.36000001
7.9310002 8.3330002 -0.722 0.36000001
7.8829999 8.3339996 -0.71899998 0.34999999
7.8439999 8.3459997 -0.71799999 0.36000001
7.796 8.3470001 -0.71499997 0.34999999
7.7579999 8.3590002 -0.71399999 0.34999999
7.7080002 8.3579998 -0.71100003 0.34
7.6599998 8.3590002 -0.708 0.33000001
7.6409998 8.3640003 -0.708 0.38
7.5939999 8.3649998 -0.70499998 0.30000001
7.5500002 8.3699999 -0.70300001 0.31999999
7.5120001 8.3800001 -0.70200002 0.38
7.4679999 8.3850002 -0.69999999 0.27000001
7.4390001 8.4049997 -0.699 0.46000001
7.4369998 8.4549999 -0.70200002 0.19
7.4439998 8.4910002 -0.70499998 0.18000001
7.4489999 8.5500002 -0.70899999 0.19
7.4320002 8.5839996 -0.70999998 0.22
7.3930001 8.5939999 -0.708 0.36000001
7.2379999 8.4689999 -0.69300002 0.23
7.198 8.4750004 -0.69099998 0.20999999
7.1680002 8.4940004 -0.69099998 0.2
7.2459998 8.6400003 -0.70300001 0.31999999
7.2280002 8.6470003 -0.70300001 0.30000001
7.2069998 8.677 -0.704 0.31999999
7.1799998 8.6999998 -0.704 0.30000001
7.1389999 8.7060003 -0.70200002 0.27000001
7.1269999 8.7469997 -0.704 0
7.098 8.7670002 -0.704 0
7.105 8.8330002 -0.708 0.12
7.1209998 8.8809996 -0.71200001 0.15000001
7.0949998 8.9049997 -0.71200001 0.34
7.0890002 8.9560003 -0.71499997 0.19
7.086 9.0089998 -0.71799999 0.18000001
7.0879998 9.0710001 -0.722 0.22
7.0840001 9.1239996 -0.72600001 0.18000001
7.086 9.1859999 -0.73000002 0.31
7.1069999 9.243 -0.73400003 0.19
7.1090002 9.3059998 -0.73799998 0.17
7.1110001 9.3699999 -0.74299997 0.16
7.1479998 9.4790001 -0.75099999 0.20999999
11.116 8.2869997 -0.991 0.33000001
11.045 8.2609997 -0.98500001 0.41
10.983 8.2679996 -0.98100001 0.28999999
10.911 8.2679996 -0.97600001 0.50999999
10.877 8.2959995 -0.97500002 0.28999999
10.969 8.4209995 -0.98799998 0.40000001
10.974 8.4799995 -0.991 0.38
10.96 8.5240002 -0.99299997 0.46000001
11.019 8.5979996 -1 0.34
11.042 8.6719999 -1.006 0.44999999
10.922 8.6339998 -0.99599999 0.33000001
10.834 8.6190004 -0.98900002 0.25
10.767 8.6210003 -0.98500001 0.38
10.675 8.6020002 -0.977 0.30000001
10.589 8.5880003 -0.97100002 0.38
10.512 8.5530005 -0.96399999 0.18000001
10.103 8.2720003 -0.921 0.38
10.042 8.2740002 -0.91799998 0.41
9.9910002 8.2860003 -0.91500002 0.40000001
9.9289999 8.2860003 -0.91100001 0.38999999
9.868 8.2880001 -0.90700001 0.37
9.8170004 8.2980003 -0.90399998 0.38999999
9.7690001 8.2840004 -0.89999998 0.41
9.724 8.2980003 -0.898 0.41
9.6610003 8.2969999 -0.89399999 0.41
9.6020002 8.2980003 -0.88999999 0.41
9.5550003 8.3100004 -0.88800001 0.40000001
9.4879999 8.3050003 -0.88300002 0.38999999
9.434 8.309 -0.88 0.41
9.3730001 8.3079996 -0.87599999 0.40000001
9.3310003 8.2969999 -0.87199998 0.40000001
9.2749996 8.2989998 -0.86900002 0.40000001
9.2150002 8.2980003 -0.86500001 0.41
9.165 8.3050003 -0.86199999 0.41
9.118 8.3149996 -0.86000001 0.41
9.0609999 8.3149996 -0.85600001 0.34
9.0050001 8.3149996 -0.85299999 0.44999999
8.9729996 8.3120003 -0.85000002 0.34999999
8.9139996 8.3100004 -0.847 0.43000001
8.8739996 8.3240004 -0.84500003 0.34
8.8129997 8.3190002 -0.84100002 0.44
8.7609997 8.3219995 -0.838 0.41999999
8.7060003 8.3219995 -0.83399999 0.40000001
8.6599998 8.3299999 -0.83200002 0.33000001
8.6149998 8.3129997 -0.82800001 0.44
8.5690002 8.3199997 -0.82599998 0.41
8.5229998 8.3280001 -0.82300001 0.40000001
8.4720001 8.3310003 -0.81999999 0.38999999
8.4239998 8.335 -0.81800002 0.38999999
8.3660002 8.3299999 -0.81400001 0.38
8.3199997 8.3369999 -0.81099999 0.38
8.2700005 8.3389997 -0.80900002 0.38
8.2279997 8.3219995 -0.80500001 0.40000001
8.1809998 8.3260002 -0.80199999 0.44
8.1300001 8.3260002 -0.79900002 0.36000001
8.0799999 8.3269997 -0.796 0.44
8.0279999 8.3249998 -0.79299998 0.30000001
7.9310002 8.2770004 -0.78399998 0.51999998
7.9190001 8.316 -0.78600001 0
7.8779998 8.3000002 -0.78299999 0
7.829 8.3000002 -0.77999997 0
7.7810001 8.3009996 -0.77700001 0
7.7470002 8.3170004 -0.77600002 0
7.698 8.316 -0.773 0.1
7.6729999 8.342 -0.773 0.14
7.6240001 8.3409996 -0.76999998 0.23999999
7.5869999 8.3529997 -0.76899999 0.31999999
7.5630002 8.3529997 -0.76800001 0.28
7.5240002 8.3620005 -0.76599997 0.30000001
7.4850001 8.3719997 -0.764 0.33000001
7.4460001 8.3809996 -0.76300001 0.37
7.408 8.3900003 -0.76099998 0.34
7.3629999 8.3929996 -0.759 0.41999999
7.3210001 8.3979998 -0.75700003 0.34999999
7.2930002 8.3929996 -0.755 0.41
7.2550001 8.4020004 -0.75300002 0.34999999
7.211 8.4029999 -0.75099999 0.41999999
7.1750002 8.415 -0.75 0.30000001
7.1300001 8.415 -0.74699998 0.56
7.1079998 8.4429998 -0.74800003 0.34
7.0960002 8.4829998 -0.75 0.30000001
7.1069999 8.5229998 -0.75300002 0.30000001
7.1079998 8.5790005 -0.75700003 0.28999999
7.1009998 8.6260004 -0.759 0.2
7.1090002 8.691 -0.764 0.34999999
7.0739999 8.7040005 -0.76300001 0.30000001
7.0450001 8.7250004 -0.76300001 0.36000001
7.0479999 8.7849998 -0.76700002 0.34999999
7.053 8.8190002 -0.76999998 0.31999999
7.0510001 8.8739996 -0.773 0.28999999
7.0500002 8.9300003 -0.77700001 0.33000001
7.0549998 8.9949999 -0.78200001 0.36000001
7.0560002 9.0550003 -0.78600001 0.36000001
7.0510001 9.1070004 -0.78899997 0.36000001
7.052 9.1689997 -0.79299998 0.36000001
7.0630002 9.2130003 -0.79699999 0.36000001
7.0619998 9.2720003 -0.801 0.34999999
7.0640001 9.335 -0.80500001 0.33000001
7.0679998 9.4020004 -0.81 0.33000001
7.0669999 9.4630003 -0.81400001 0.36000001
7.0700002 9.5299997 -0.81900001 0.33000001
7.0749998 9.5979996 -0.824 0.47999999
7.1700001 9.7930002 -0.84200001 0.25999999
11.237 8.3039999 -1.0829999 0.15000001
11.228 8.3520002 -1.085 0.41999999
11.149 8.3479996 -1.079 0.23
11.037 8.3179998 -1.069 0.18000001
10.946 8.2770004 -1.0599999 0.28999999
10.932 8.3210001 -1.062 0.18000001
10.935 8.3769999 -1.0650001 0.22
10.919 8.4200001 -1.066 0.36000001
10.909 8.4659996 -1.068 0.30000001
10.758 8.4040003 -1.054 0.11
10.498 8.2550001 -1.026 0.079999998
10.446 8.2399998 -1.022 0.2
10.407 8.2629995 -1.02 0
10.334 8.2589998 -1.015 0
10.339 8.316 -1.0190001 0
10.344 8.3730001 -1.022 0.090000004
10.429 8.4960003 -1.035 0.2
10.077 8.2629995 -0.99699998 0.25999999
10.013 8.2629995 -0.99199998 0.28999999
9.9659996 8.2510004 -0.98799998 0.30000001
9.8999996 8.2489996 -0.98299998 0.31
9.842 8.2539997 -0.98000002 0.28
9.7779999 8.2519999 -0.97500002 0.31999999
9.7209997 8.257 -0.97100002 0.28999999
9.6619997 8.2589998 -0.96700001 0.28
9.6029997 8.2609997 -0.963 0.27000001
9.5629997 8.2530003 -0.95999998 0.28
9.507 8.257 -0.95599997 0.31
9.4440002 8.2550001 -0.95200002 0.28
9.3889999 8.2589998 -0.94800001 0.31
9.3360004 8.2639999 -0.94499999 0.28
9.2799997 8.2670002 -0.94099998 0.28
9.2200003 8.2659998 -0.93699998 0.28
9.1809998 8.2580004 -0.93400002 0.27000001
9.1289997 8.2629995 -0.93099999 0.28
9.0790005 8.2700005 -0.92799997 0.30000001
9.0190001 8.2670002 -0.92400002 0.30000001
8.967 8.2709999 -0.92000002 0.28999999
8.9219999 8.2819996 -0.91799998 0.30000001
8.8620005 8.2790003 -0.91399997 0.31
8.8140001 8.2860003 -0.91100001 0.28999999
8.7690001 8.2700005 -0.90700001 0.28999999
8.7250004 8.2799997 -0.90499997 0.28999999
8.6549997 8.2659998 -0.89899999 0.30000001
8.6079998 8.2720003 -0.89600003 0.28999999
8.5719995 8.29 -0.89499998 0.27000001
8.5170002 8.2889996 -0.89099997 0.28999999
8.4720001 8.2980003 -0.889 0.28999999
8.4309998 8.283 -0.88499999 0.17
8.3129997 8.2709999 -0.87699997 0.25
8.2729998 8.283 -0.875 0.25999999
8.2189999 8.2810001 -0.87099999 0.27000001
8.1709995 8.2840004 -0.86900002 0.27000001
8.1190004 8.2840004 -0.86500001 0.25999999
8.0810003 8.2969999 -0.86400002 0.19
8.0369997 8.2779999 -0.86000001 0.40000001
7.9860001 8.2779999 -0.85600001 0.23999999
7.9489999 8.2910004 -0.85500002 0.17
7.8909998 8.335 -0.85399997 0.19
7.8429999 8.3369999 -0.85100001 0.19
7.7579999 8.2989998 -0.84299999 0.20999999
7.7150002 8.2790003 -0.83899999 0.18000001
7.6339998 8.2950001 -0.83499998 0.19
7.579 8.2889996 -0.83099997 0.31999999
7.5450001 8.3039999 -0.82999998 0.14
7.4809999 8.2860003 -0.82499999 0.38999999
7.4590001 8.3140001 -0.82599998 0.20999999
7.4099998 8.2860003 -0.82099998 0
7.1859999 8.2939997 -0.80800003 0
7.1550002 8.3109999 -0.80699998 0
7.1160002 8.3439999 -0.80699998 0.16
7.0830002 8.3590002 -0.80599999 0
7.066 8.3920002 -0.80699998 0.059999999
7.0430002 8.4189997 -0.80800003 0
7.0489998 8.4790001 -0.81300002 0
7.0409999 8.5240002 -0.815 0
7.0570002 8.5699997 -0.81900001 0.13
7.0549998 8.6230001 -0.82300001 0.11
7.027 8.6440001 -0.82300001 0.38
7.007 8.6750002 -0.824 0.18000001
7.0040002 8.7270002 -0.82800001 0.27000001
7.0359998 8.823 -0.83600003 0
7.0580001 8.908 -0.84399998 0
7.0560002 8.9630003 -0.847 0.11
7.086 9.0299997 -0.85399997 0.090000004
7.086 9.0880003 -0.85799998 0.2
7.0229998 9.066 -0.85299999 0.18000001
7.006 9.1029997 -0.85500002 0
7.0640001 9.2379999 -0.86799997 0.07
7.0970001 9.3409996 -0.87699997 0.15000001
7.0929999 9.3970003 -0.88099998 0.30000001
7.0650001 9.3900003 -0.87900001 0.18000001
7.0289998 9.4049997 -0.87800002 0.36000001
7.0570002 9.5030003 -0.88700002 0.20999999
7.0320001 9.5319996 -0.88800001 0.31999999
7.0869999 9.6689997 -0.90100002 0.14
7.099 9.7489996 -0.90799999 0.38999999
7.1220002 9.8459997 -0.91600001 0.12
11.164 8.2779999 -1.165 0.33000001
11.169 8.3369999 -1.169 0.40000001
11.165 8.3889999 -1.171 0.34
10.974 8.2989998 -1.151 0.38999999
10.942 8.3280001 -1.15 0.33000001
10.953 8.3920002 -1.155 0.27000001
10.957 8.4219999 -1.1569999 0.40000001
10.678 8.2600002 -1.126 0.2
10.578 8.2360001 -1.117 0.47999999
10.516 8.2410002 -1.112 0.36000001
10.448 8.2410002 -1.107 0.28999999
10.336 8.257 -1.099 0.28999999
10.271 8.2589998 -1.094 0.38999999
10.224 8.2469997 -1.09 0.38999999
10.189 8.2720003 -1.089 0.33000001
10.163 8.3039999 -1.089 0.18000001
9.9860001 8.2639999 -1.073 0.38
9.9300003 8.2700005 -1.069 0.38
9.8699999 8.2729998 -1.0650001 0.40000001
9.8299999 8.2659998 -1.061 0.38
9.7550001 8.2550001 -1.0549999 0.38999999
9.7069998 8.2659998 -1.052 0.38999999
9.6499996 8.2709999 -1.048 0.41
9.5839996 8.2659998 -1.043 0.41
9.5349998 8.276 -1.04 0.34
9.4779997 8.2790003 -1.036 0.43000001
9.4350004 8.2670002 -1.0319999 0.41999999
9.382 8.2729998 -1.028 0.41
9.3249998 8.2749996 -1.024 0.33000001
9.2659998 8.2749996 -1.02 0.43000001
9.224 8.2889996 -1.018 0.34
9.1520004 8.2770004 -1.012 0.41999999
9.0970001 8.2779999 -1.008 0.40000001
9.059 8.2700005 -1.0039999 0.36000001
9.0150003 8.2819996 -1.002 0.43000001
8.9530001 8.2770004 -0.99699998 0.36000001
8.8920002 8.2720003 -0.99299997 0.44999999
8.8509998 8.2860003 -0.991 0.36000001
8.7930002 8.2840004 -0.986 0.38
8.7349997 8.2810001 -0.98199999 0.44999999
8.7119999 8.2849998 -0.98100001 0.34999999
8.6479998 8.276 -0.97500002 0.43000001
8.6110001 8.2930002 -0.97399998 0.36000001
8.5500002 8.2849998 -0.96899998 0.43000001
8.4969997 8.2860003 -0.96499997 0.44999999
8.4580002 8.3000002 -0.96399999 0.34999999
8.4119997 8.3070002 -0.96100003 0.37
8.3640003 8.2849998 -0.95599997 0.41999999
8.3120003 8.2860003 -0.95200002 0.38999999
8.2779999 8.3030005 -0.95099998 0.34
8.2150002 8.2919998 -0.94599998 0.44999999
8.1969995 8.3269997 -0.94700003 0.25
8.125 8.3050003 -0.94099998 0.50999999
8.0880003 8.3190002 -0.93900001 0.27000001
8.026 8.3070002 -0.93400002 0.51999998
8.0019999 8.3079996 -0.93300003 0.28999999
7.9289999 8.2849998 -0.926 0.56999999
7.9619999 8.3719997 -0.93400002 0.31
7.973 8.4359999 -0.94 0.25999999
7.9559999 8.4709997 -0.94099998 0.43000001
7.948 8.5159998 -0.94400001 0.43000001
7.9489999 8.5719995 -0.94800001 0.38
7.9619999 8.6120005 -0.95200002 0.25999999
7.96 8.665 -0.95499998 0.15000001
7.9369998 8.6940002 -0.95599997 0.43000001
7.8990002 8.7080002 -0.954 0.19
7.842 8.6999998 -0.94999999 0.28999999
7.7470002 8.6490002 -0.94 0.31
7.6750002 8.6219997 -0.93400002 0.2
7.5190001 8.4729996 -0.912 0.43000001
7.401 8.3920002 -0.89899999 0.19
7.2810001 8.309 -0.88499999 0.44
7.27 8.3479996 -0.88700002 0.25
7.2080002 8.3299999 -0.88200003 0.55000001
7.1729999 8.342 -0.88 0.38999999
7.1420002 8.3590002 -0.88 0.28
7.1269999 8.368 -0.87900001 0.22
7.0710001 8.3559999 -0.875 0.60000002
7.0560002 8.3920002 -0.87699997 0.19
7.0430002 8.4289999 -0.87900001 0.50999999
7.0289998 8.4659996 -0.88099998 0.23999999
7.0310001 8.5240002 -0.88499999 0.20999999
7.0320001 8.5799999 -0.889 0.18000001
7.02 8.6199999 -0.89200002 0.20999999
7.0240002 8.6529999 -0.89399999 0.25999999
7.0180001 8.7010002 -0.898 0.23
7.0019999 8.7379999 -0.89899999 0.44
6.9790001 8.7659998 -0.89999998 0.87
6.9720001 8.8129997 -0.903 0.85000002
7.0159998 8.927 -0.91500002 0.88
7.0139999 8.9820004 -0.91900003 0.88999999
7.0289998 9.0310001 -0.92400002 0.88
7.0089998 9.0640001 -0.92500001 0.89999998
7.0349998 9.1569996 -0.93400002 0.88
7.0229998 9.2010002 -0.93699998 0.92000002
7.1209998 9.3920002 -0.95700002 0.74000001
7.052 9.3610001 -0.95099998 0.27000001
7.013 9.3710003 -0.949 0.28999999
7.0190001 9.4090004 -0.95300001 0.38
7.033 9.4899998 -0.95999998 0.43000001
7.052 9.5799999 -0.96799999 0.27000001
7.0739999 9.7370005 -0.98199999 0.16
10.994 8.2460003 -1.234 0.25
10.969 8.2810001 -1.234 0.50999999
10.981 8.3450003 -1.239 0.25
10.953 8.3780003 -1.239 0.52999997
10.703 8.2399998 -1.21 0.41999999
10.63 8.2379999 -1.2029999 0.36000001
10.576 8.2489996 -1.2 0.44999999
10.531 8.2410002 -1.196 0.31999999
10.49 8.2620001 -1.193 0.31999999
10.431 8.2690001 -1.189 0.30000001
10.327 8.2399998 -1.179 0.15000001
10.265 8.2440004 -1.174 0.22
10.201 8.2449999 -1.169 0.41
10.139 8.2480001 -1.164 0.44999999
10.108 8.2489996 -1.161 0.49000001
10.094 8.29 -1.163 0.2
10.045 8.3030005 -1.16 0.14
9.941 8.2700005 -1.149 0.31999999
9.8780003 8.2709999 -1.1440001 0.50999999
9.8240004 8.2790003 -1.141 0.30000001
9.7559996 8.2729998 -1.135 0.5
9.7229996 8.2720003 -1.132 0.30000001
9.6490002 8.2609997 -1.126 0.5
9.6040001 8.276 -1.123 0.30000001
9.5290003 8.2629995 -1.1160001 0.51999998
9.4890003 8.2810001 -1.114 0.31999999
9.4200001 8.2729998 -1.108 0.55000001
9.3769999 8.2880001 -1.1059999 0.31999999
9.3210001 8.2650003 -1.1 0.55000001
9.2770004 8.2779999 -1.098 0.33000001
9.2040005 8.2650003 -1.091 0.54000002
9.1599998 8.2779999 -1.0880001 0.31
9.0909996 8.2679996 -1.082 0.55000001
9.0500002 8.283 -1.08 0.31
8.9849997 8.2749996 -1.075 0.55000001
8.9540005 8.2729998 -1.072 0.33000001
8.8870001 8.2629995 -1.066 0.56
8.8500004 8.2799997 -1.0650001 0.31
8.7810001 8.2679996 -1.059 0.51999998
8.7469997 8.2880001 -1.057 0.30000001
8.677 8.2740002 -1.051 0.55000001
8.6429996 8.2930002 -1.05 0.34
8.5880003 8.2930002 -1.046 0.44999999
8.5480003 8.2799997 -1.0420001 0.43000001
8.4949999 8.2799997 -1.038 0.43000001
8.4510002 8.29 -1.035 0.41
8.3909998 8.283 -1.03 0.43000001
8.3369999 8.2819996 -1.026 0.47999999
8.2930002 8.29 -1.024 0.38
8.2370005 8.2860003 -1.0190001 0.38
8.2060003 8.2810001 -1.017 0.38999999
8.1639996 8.2910004 -1.0140001 0.44
8.1129999 8.2910004 -1.011 0.43000001
8.059 8.2880001 -1.006 0.43000001
8.0120001 8.2919998 -1.003 0.44999999
7.974 8.3039999 -1.001 0.38
8.0120001 8.3970003 -1.011 0.38999999
8.0389996 8.4510002 -1.017 0.37
8.0159998 8.4799995 -1.018 0.5
8.0080004 8.5240002 -1.021 0.31
8.0050001 8.5760002 -1.024 0.54000002
7.9970002 8.6210003 -1.027 0.25999999
7.994 8.6719999 -1.031 0.36000001
7.9689999 8.6990004 -1.031 0.22
7.9310002 8.6850004 -1.027 0.38
7.8870001 8.6920004 -1.025 0.30000001
7.8060002 8.658 -1.017 0.47999999
7.7150002 8.6120005 -1.007 0.31
7.6719999 8.618 -1.0039999 0.30000001
7.619 8.6120005 -1 0.25999999
7.5760002 8.618 -0.99699998 0.41
7.3210001 8.382 -0.96100003 0.20999999
7.2259998 8.3009996 -0.94800001 0.16
7.2160001 8.3409996 -0.95099998 0.34
7.1700001 8.3409996 -0.94800001 0.51999998
7.1440001 8.3640003 -0.94800001 0.31
7.099 8.3649998 -0.94499999 0.47999999
7.0489998 8.3579998 -0.94099998 0.58999997
7.0380001 8.3990002 -0.94300002 0.30000001
7.0599999 8.4530001 -0.949 0.31999999
7.2220001 8.7010002 -0.98000002 0
7.033 8.6379995 -0.96200001 0.28999999
7.0079999 8.6630001 -0.963 0.44999999
6.9899998 8.6960001 -0.96399999 0.30000001
6.961 8.6879997 -0.96200001 0.99000001
6.9759998 8.7629995 -0.96899998 0.88999999
6.9980001 8.8470001 -0.977 0.89999998
6.9959998 8.901 -0.98100001 0.89999998
6.98 8.9390001 -0.98400003 0.94
6.967 8.9799995 -0.986 0.94
7.0009999 9.0819998 -0.99699998 0.91000003
6.9780002 9.1120005 -0.99800003 0.94999999
6.9759998 9.1379995 -1 0.94999999
7.0339999 9.3339996 -1.02 0.30000001
7.0630002 9.434 -1.03 0.23
7.0300002 9.4519997 -1.029 0.47999999
7.0310001 9.5150003 -1.035 0.36000001
7.0229998 9.5679998 -1.039 0.5
7.059 9.7749996 -1.058 0.18000001
11.045 8.2919998 -1.332 0.38999999
11.045 8.3179998 -1.334 0.36000001
11.031 8.3629999 -1.336 0.34
11.014 8.4049997 -1.337 0.40000001
10.778 8.2779999 -1.308 0.34
10.671 8.302 -1.3 0.56999999
10.547 8.2589998 -1.286 0
10.529 8.2709999 -1.285 0
10.475 8.2819996 -1.281 0
10.409 8.283 -1.276 0
10.406 8.3339996 -1.279 0.12
10.281 8.2869997 -1.265 0.17
10.216 8.2880001 -1.2589999 0.38999999
10.158 8.2930002 -1.255 0.34999999
10.129 8.2969999 -1.252 0
10.145 8.3629999 -1.258 0
10.124 8.3990002 -1.2589999 0.059999999
9.9709997 8.3249998 -1.2410001 0
9.8920002 8.3120003 -1.233 0.1
9.8520002 8.3310003 -1.2309999 0
9.79 8.3310003 -1.226 0
9.7180004 8.2959995 -1.217 0.059999999
9.6709995 8.3079996 -1.214 0.13
9.6219997 8.3190002 -1.211 0.18000001
9.5570002 8.3149996 -1.205 0.20999999
9.5109997 8.3280001 -1.202 0.31999999
9.4580002 8.3339996 -1.198 0.36000001
9.3959999 8.3319998 -1.193 0.34
9.3409996 8.335 -1.189 0.37
9.2959995 8.3219995 -1.184 0.37
9.2329998 8.3179998 -1.179 0.30000001
9.1789999 8.3210001 -1.174 0.34
9.1219997 8.3219995 -1.17 0.34999999
9.0679998 8.3249998 -1.166 0.34999999
9.0220003 8.3339996 -1.1619999 0.34
8.9580002 8.3269997 -1.1569999 0.34999999
8.9200001 8.3179998 -1.153 0.37
8.8649998 8.3190002 -1.149 0.36000001
8.8030005 8.3129997 -1.143 0.31999999
8.7609997 8.3249998 -1.141 0.34
8.7200003 8.3389997 -1.138 0.36000001
8.6540003 8.3280001 -1.132 0.36000001
8.6029997 8.3310003 -1.128 0.38
8.5679998 8.323 -1.125 0.34999999
8.5170002 8.3260002 -1.1210001 0.34999999
8.4610004 8.323 -1.117 0.34999999
8.4130001 8.3269997 -1.113 0.34
8.3669996 8.3339996 -1.11 0.38
8.3170004 8.3360004 -1.1059999 0.28999999
8.2639999 8.335 -1.102 0.31999999
8.2399998 8.3369999 -1.1 0.33000001
8.1879997 8.3369999 -1.096 0.36000001
8.1289997 8.3290005 -1.091 0.34
8.0830002 8.3339996 -1.0880001 0.40000001
8.1190004 8.4239998 -1.098 0.25
8.1350002 8.4940004 -1.105 0.31999999
8.1280003 8.54 -1.108 0.34999999
